# .PCD v0.7 - Point Cloud Data file format
VERSION 0.7
FIELDS x y z normal_x normal_y normal_z curvature
SIZE 4 4 4 4 4 4 4
TYPE F F F F F F F
COUNT 1 1 1 1 1 1 1
WIDTH 397
HEIGHT 1
VIEWPOINT 0 0 0 1 0 0 0
POINTS 397
DATA ascii
0.034502551 0.010837272 0.01344703 -0.16884723 -0.45159745 -0.87609947 0.0030943851
0.027336249 0.011597268 0.013971033 -0.011541721 -0.46529692 -0.88507944 0.0056861709
0.018419949 0.010727271 0.013614031 0.14614862 -0.496488 -0.85565197 0.0056441575
0.055502951 0.012337275 0.0053210314 -0.52052444 -0.53684396 -0.66396749 0.0069778459
0.053625949 0.020187274 -0.003046969 -0.50764346 -0.74296999 -0.4362267 0.012873111
0.063217953 0.010507271 -0.0022319686 -0.74675208 -0.59207439 -0.30300051 0.00816618
0.057940952 0.015077271 -0.00026496872 -0.59785169 -0.67759848 -0.42829144 0.015595004
0.055830948 0.019687273 -0.0096969698 -0.59158164 -0.74482262 -0.30865923 0.0096910615
0.064830951 0.0096472725 -0.0081929695 -0.79553264 -0.56393856 -0.22158764 0.0077297003
0.045062952 0.020417273 0.0039770324 -0.31086302 -0.74870217 -0.58549905 0.010855215
0.03706225 0.021727271 0.0054960307 -0.15485749 -0.70128393 -0.69585913 0.0058102743
0.047181949 0.014087275 0.0081910323 -0.32298067 -0.56194073 -0.76151562 0.0089428844
0.037749648 0.014927268 0.01023603 -0.17445859 -0.523031 -0.83426785 0.0039783465
0.04716095 0.022707269 -0.0011699684 -0.40127173 -0.79735625 -0.45078158 0.011859259
0.03716705 0.026007265 -0.0011119694 -0.14846934 -0.86061466 -0.48713383 0.01193497
0.051830947 0.01880727 0.0023690313 -0.50815374 -0.73633546 -0.44675478 0.013027777
0.02721205 0.02190727 0.0058820304 0.021843739 -0.73292792 -0.6799556 0.0062952945
0.01791295 0.021107271 0.0052170325 0.21974316 -0.7375769 -0.63850862 0.0058935038
0.02707465 0.01671727 0.010802032 0.0033577818 -0.55838519 -0.82957506 0.0055112438
0.016760949 0.015507273 0.010125032 0.18408856 -0.58010685 -0.79346544 0.0045971852
0.02741505 0.026137277 -0.00051996857 0.060926694 -0.89214551 -0.44762078 0.0071681938
0.017109949 0.024577275 -0.0010829698 0.25322157 -0.84287763 -0.474801 0.004851752
0.04556495 0.02562727 -0.0080219693 -0.30896688 -0.90670973 -0.28708377 0.0081693754
0.036173049 0.028377265 -0.0088869687 -0.18857701 -0.8954969 -0.40314254 0.0061773811
0.03054245 0.028687268 -0.010206969 -0.030506011 -0.93418866 -0.35547286 0.0078295255
0.015259949 0.026207268 -0.0080369692 0.20082667 -0.90866685 -0.36605063 0.0041274121
0.01183095 0.0093672723 0.012775032 0.17915623 -0.52085388 -0.83463424 0.0074276463
-0.045475051 0.03149727 0.02374403 -0.13361748 -0.37986907 -0.91533923 0.053038858
-0.036890052 0.041307271 0.013788031 -0.52148068 -0.439255 -0.73151416 0.026551403
-0.04284405 0.042797267 0.015964029 -0.10976201 -0.60856271 -0.78587765 0.030716548
-0.036429048 0.033587277 0.014893031 -0.64690953 -0.27790511 -0.71012449 0.0061066193
-0.04203105 0.035017267 0.020216031 -0.23028101 -0.50395799 -0.8324644 0.024193831
-0.050447047 0.031507269 0.023892032 0.20600085 -0.40636119 -0.89018774 0.042999495
-0.051340051 0.041627273 0.015491029 0.39670554 -0.63132799 -0.66637051 0.020071341
-0.05359105 0.035147265 0.019504031 0.49222195 -0.44529268 -0.74795187 0.027716169
-0.059049048 0.032487273 0.014920032 0.71588868 -0.35794571 -0.59948176 0.0061506582
-0.037244052 0.020817272 0.02342703 -0.44702551 0.026569208 -0.89412653 0.049122065
-0.043318048 0.023967266 0.02506203 -0.15109582 -0.14565089 -0.97772992 0.012987013
-0.037010051 0.017077275 0.023579029 0.49363372 -0.27387455 0.82542014 0.063380361
-0.04293105 0.015457273 0.02499303 0.089953512 -0.40322584 0.91066861 0.043889515
-0.033352051 0.023617268 0.016529029 0.7461043 0.10399755 0.65765715 0.025209237
-0.039245047 0.027327269 0.021573031 -0.43632671 -0.33852753 -0.83367741 0.025434997
-0.034013048 0.015457273 0.017097032 0.73735356 -0.31851915 0.59569734 0.030531738
-0.042220049 0.01056727 0.021108029 0.16830848 -0.65331757 0.7381385 0.032480057
-0.051434048 0.024757266 0.024732033 0.38682958 -0.01568961 -0.92201769 0.017833892
-0.049098052 0.016447268 0.023814032 0.15518065 0.31381333 -0.93671775 0.021380307
-0.056135051 0.023437276 0.021699032 0.66413164 -0.060075819 -0.74519807 0.016970368
-0.060457051 0.023557276 0.017287033 0.75927979 -0.1181355 -0.63995177 0.015361789
-0.053578049 0.013957269 0.020668032 0.4467158 0.38261694 -0.80873305 0.015345791
-0.060455047 0.015187271 0.01726803 0.67966002 0.12636337 -0.72256106 0.032478429
-0.027419049 0.049827278 0.0028300304 -0.33762839 -0.71236515 -0.61525851 0.0429281
-0.026436049 0.050477266 -0.00038696826 -0.83237761 -0.38691509 -0.39679241 0.023426346
-0.0071690492 0.069327265 -0.027125088 -0.29537779 -0.14131801 -0.94487101 0.06837023
-0.0086690485 0.069327265 -0.02708008 -0.29537809 -0.14131688 -0.94487107 0.068370357
-0.0071690492 0.06669727 -0.02678239 -0.29537809 -0.14131688 -0.94487107 0.068370357
-0.0040950514 0.054457277 -0.025433769 -0.43437883 -0.10727591 -0.89431924 0.027991556
-0.022832051 0.051847264 -0.016028969 -0.66571194 -0.53041917 -0.52486485 0.10940588
-0.012626052 0.063767269 -0.02424977 -0.088684477 -0.32659593 -0.9409942 0.04067177
-0.02038705 0.061487272 -0.02310317 -0.19820534 -0.51164192 -0.83602464 0.018989481
-0.01281105 0.054037273 -0.021814069 -0.46768439 -0.15497798 -0.8702029 0.021614425
-0.022143051 0.056127265 -0.019273669 -0.36611214 -0.40681309 -0.83693784 0.031957328
-0.033336051 0.050517276 0.0058590304 -0.34849492 -0.73624218 -0.58008516 0.044005789
-0.042589054 0.050537273 0.0063990299 0.037774783 -0.84826654 -0.52822059 0.019414406
-0.033462048 0.052587271 0.00010303035 -0.34841642 -0.73644722 -0.57987207 0.043948863
-0.043029048 0.052847266 0.00034303032 0.084375083 -0.85251749 -0.51584369 0.023248179
-0.049582049 0.050037265 0.0049660299 0.36376482 -0.81080192 -0.4585579 0.0071089235
-0.052488051 0.051087275 -0.0012169685 0.41848749 -0.81323707 -0.40436816 0.011017915
-0.058169052 0.049647272 -0.0051669683 0.79803133 -0.46404663 -0.38445634 0.034933198
-0.028169051 0.053027272 -0.016976969 -0.66573882 -0.53037977 -0.52487051 0.10940783
-0.028807051 0.05484727 -0.019979469 -0.36614218 -0.40679416 -0.83693397 0.031956732
-0.059419051 0.049577266 -0.0080869682 0.8514818 -0.36151975 -0.37984514 0.047997151
-0.027048051 0.043507278 0.0035480317 -0.71406651 -0.25552902 -0.65177757 0.026650187
-0.025624052 0.032897279 0.0048250314 -0.75563037 -0.25465611 -0.6034674 0.0062280181
-0.025063049 0.044487268 -0.0010269694 -0.83619982 -0.33200502 -0.43651178 0.027516434
-0.01754405 0.029687271 -0.0053929687 -0.77167147 -0.45983508 -0.43940294 0.015568241
-0.02230905 0.034287274 -0.0015149694 -0.82502484 -0.29802176 -0.48012191 0.016481433
0.010802949 0.019727275 0.0034710318 0.2189856 -0.77467448 -0.59323251 0.011681316
0.0074249506 0.013777271 0.0079070311 0.25612333 -0.60931838 -0.75042123 0.0029822814
-0.0028400496 0.013007268 0.0055490304 0.089117572 -0.69171697 -0.71664894 0.007182973
0.0077329502 0.021557271 -0.0027399696 0.21852617 -0.88355941 -0.41420898 0.0038163862
-0.0033290498 0.02083727 -0.0040089693 -0.0098979417 -0.83467448 -0.55065459 0.0082057444
0.0042119492 0.018287271 0.0014430303 0.23928009 -0.82670623 -0.50921685 0.0083035426
-0.0026660487 0.017737269 0.00092703104 0.033354413 -0.81189781 -0.58284593 0.0085460329
-0.023831051 0.024207264 0.0076660309 -0.6821875 -0.30016235 -0.6667254 0.010716889
-0.012591049 0.012987271 0.0056960303 -0.055118669 -0.64711553 -0.7603969 0.0040871259
-0.022956051 0.014147274 0.0072800312 -0.21478797 -0.3984302 -0.89169478 0.035277426
-0.013414051 0.022227272 -0.0032199696 -0.28772661 -0.71870273 -0.63299263 0.036527757
-0.018865049 0.024707273 0.00080603175 -0.72714043 -0.35215625 -0.58928162 0.024528533
-0.013340048 0.017697275 0.0013310313 -0.28699586 -0.60819656 -0.74008805 0.046943106
-0.018580049 0.017587274 0.0015690308 -0.63170999 -0.40763944 -0.65937287 0.035298273
-0.0068830512 0.04864727 -0.026762469 0.42597631 0.069760799 0.90204078 0.013660887
-0.02151705 0.044747278 -0.013420969 -0.79792613 -0.50649345 -0.3267695 0.056300875
-0.017294049 0.030277267 -0.0090129692 -0.64400738 -0.55972904 -0.52149576 0.027122065
-0.020044051 0.035907269 -0.011032969 -0.82856554 -0.35174406 -0.4356091 0.011342637
-0.01389505 0.04649727 -0.021901669 -0.53052694 -0.1433237 -0.83546358 0.019582529
-0.018884052 0.043937266 -0.018623669 -0.43282154 -0.42147359 -0.79688495 0.028641256
0.0061549488 0.023647279 -0.0092249699 0.21852911 -0.8835566 -0.41421345 0.0038136169
-0.0025020503 0.023247272 -0.0094979685 -0.084133193 -0.80922121 -0.58144879 0.018533347
-0.012652051 0.025307268 -0.010651968 -0.36518443 -0.63293225 -0.68266904 0.027313044
-0.032401051 0.044327274 0.0088660326 -0.50408536 -0.44549564 -0.73988628 0.039870977
-0.042648047 0.047607273 0.01102603 -0.015496265 -0.7730304 -0.63417977 0.01780135
-0.031445049 0.034147277 0.0086970311 -0.71306747 -0.24283816 -0.65769631 0.0063271122
-0.053538047 0.045577273 0.0086530317 0.47669819 -0.71192718 -0.51567286 0.013532816
-0.058743052 0.041837275 0.00647703 0.78517169 -0.52193189 -0.33330569 0.024797359
-0.059919052 0.035627276 0.010472031 0.84258002 -0.39418849 -0.36697993 0.014366952
-0.05658105 0.048297271 0.00090603158 0.5251044 -0.78348589 -0.33228782 0.025516272
-0.060520053 0.044597268 -0.0014329683 0.89614761 -0.32351896 -0.30373508 0.034004856
-0.061600052 0.034827277 -0.0036119688 0.95984846 -0.22861007 -0.16256762 0.007631606
-0.029641051 0.026587278 0.01169003 -0.70580089 -0.12846732 -0.69666433 0.016850151
-0.03099405 0.012467273 0.01038303 -0.49193445 -0.058857333 -0.86864048 0.040929805
-0.06273105 0.025017276 0.011401029 0.93956327 -0.17970741 -0.2914207 0.014043191
-0.062646054 0.013917275 0.01231703 0.86413795 0.33086988 -0.37919742 0.048940618
-0.064083047 0.024557278 -0.0020909682 0.98552257 -0.12056172 -0.11920663 0.0043064994
-0.064857051 0.01801727 -0.0029029697 0.98427206 0.16453789 0.064309932 0.029838379
-0.062502049 0.042567268 -0.0074419696 0.89614254 -0.32352197 -0.30374691 0.034012903
-0.061848052 0.034017265 -0.0074849688 0.95805603 -0.20726846 -0.1979098 0.0057622446
-0.064013049 0.013697274 -0.0083429683 0.98243999 0.18117557 0.044576686 0.032072492
0.054028951 0.00020727515 0.014116032 -0.50217587 -0.45149371 -0.73754513 0.0049769632
0.062680945 -0.010025732 0.013161032 -0.66844445 -0.23813689 -0.70460826 0.0084011387
0.056500949 -0.006266728 0.016010029 -0.52449149 -0.31101868 -0.79257548 0.0042440598
0.063000947 -0.015741728 0.013732033 -0.68985844 -0.097785927 -0.71730965 0.0065412661
0.057236947 -0.015815727 0.017782031 -0.5732041 -0.084137343 -0.81508148 0.0041391035
0.062890947 -0.024048731 0.013552031 -0.6749531 0.049827036 -0.73617643 0.0027250601
0.057205949 -0.025778726 0.01775703 -0.61608005 0.092481732 -0.78223556 0.0023465508
0.043580949 -0.0093737319 0.023578031 -0.37729472 -0.35353231 -0.85595769 0.0052667796
0.036562651 -0.0079227313 0.025013031 -0.18586323 -0.50761348 -0.8412987 0.012646539
0.04648795 0.0026972741 0.01583703 -0.24998525 -0.50104308 -0.82853079 0.0050569442
0.037034549 0.0036772713 0.015666032 -0.12115002 -0.45767561 -0.88082665 0.005781922
0.047591947 -0.0054587275 0.019951032 -0.37112617 -0.34566584 -0.8618471 0.0054108021
0.037724551 -0.0033297315 0.02077703 -0.11644173 -0.59730524 -0.7935161 0.0055130087
0.02706125 -0.0069547296 0.026604032 -0.024833232 -0.57589561 -0.81714606 0.012671551
0.017634951 -0.0074837282 0.026560033 0.13523138 -0.59376568 -0.7931928 0.014543219
0.02720595 0.0042572692 0.016153032 0.026278881 -0.39993814 -0.91616535 0.002705948
0.01720595 0.0042272732 0.015717031 0.1192934 -0.39521939 -0.91080779 0.0015582
0.02731875 -0.0019427314 0.01934603 -0.0069597415 -0.58737713 -0.80928338 0.015852297
0.016582951 -0.0025727302 0.01861403 0.11381002 -0.60800987 -0.78572983 0.015490185
0.045461949 -0.016758725 0.024340032 -0.40546137 -0.17009516 -0.89814734 0.0030322804
0.037197649 -0.015742727 0.02792603 -0.29560381 -0.25577238 -0.92043406 0.0076185586
0.046724949 -0.02569773 0.025070032 -0.44164523 0.016793245 -0.89703256 0.0038809509
0.037205949 -0.025799729 0.028234029 -0.28453448 0.014439251 -0.95855707 0.0030511376
0.049655952 -0.014483728 0.021704031 -0.48251823 -0.14953297 -0.86302727 0.0021532676
0.05152595 -0.026931725 0.022261033 -0.54274106 0.042393196 -0.83882946 0.0043320926
0.02728785 -0.015803732 0.029541032 -0.085129447 -0.29672778 -0.95116013 0.021261316
0.017137948 -0.015881732 0.029707031 0.19515742 -0.19225521 -0.96174401 0.012458436
0.02712425 -0.02578973 0.030501032 -0.055512048 -0.015349915 -0.99833995 0.007448623
0.01720595 -0.02568873 0.029720033 0.2755622 0.10759915 -0.95524234 0.020187844
0.06233095 -0.035111725 0.012731032 -0.64387792 0.13396259 -0.75330955 0.0024370786
0.057229951 -0.035823725 0.01565103 -0.59509897 0.15709978 -0.78814769 0.001263492
0.055841949 -0.044823729 0.01528603 -0.56684518 0.27811375 -0.77546078 0.0032190143
0.052651949 -0.055192728 0.013126032 -0.60811114 0.31426507 -0.72899812 0.0063965297
0.044912949 -0.035234727 0.024337033 -0.46439239 0.15635081 -0.87171906 0.0033340643
0.037124049 -0.035750732 0.027704032 -0.29502016 0.15021715 -0.943609 0.0037481887
0.043064952 -0.04376673 0.023114031 -0.44073677 0.28497621 -0.85119891 0.0053655636
0.037178248 -0.045764729 0.02564803 -0.29052511 0.28976738 -0.91193748 0.0064742533
0.049646951 -0.036694728 0.020998033 -0.51491582 0.17084281 -0.84004426 0.0017491818
0.04767495 -0.046113729 0.02057703 -0.51175618 0.28225034 -0.81144345 0.0029353874
0.041955948 -0.050000727 0.02238703 -0.38840196 0.3981083 -0.83105576 0.0085874954
0.02729575 -0.035940729 0.029201033 -0.020316985 0.17890212 -0.98365712 0.004140513
0.017295949 -0.035767727 0.027713032 0.32926905 0.21563224 -0.91928482 0.01968986
0.02720595 -0.046055727 0.02710803 -0.0052823606 0.27603641 -0.96113271 0.0068042353
0.017240949 -0.045598727 0.025412032 0.32840732 0.26231068 -0.90738177 0.016386257
0.013392949 -0.050183728 0.02231303 0.24083789 0.01177044 -0.97049403 0.059673704
0.03569635 -0.05272273 0.023957031 -0.19795869 0.38478413 -0.90152842 0.0084427586
0.047168948 -0.055997729 0.01601903 -0.48477679 0.32723331 -0.8111164 0.012247019
0.03792195 -0.057215728 0.01932103 -0.21786378 0.42153558 -0.88025171 0.010199225
0.046768948 -0.062933728 0.01578203 -0.50713331 0.31902084 -0.80065072 0.014214325
0.037205949 -0.063136727 0.01807203 -0.24138522 0.43614018 -0.86689961 0.0099169947
0.027469849 -0.052808728 0.024418032 -0.038185336 0.39012834 -0.91996837 0.010735004
0.016630949 -0.055879727 0.023601031 0.0094410116 0.079695806 -0.99677449 0.047492072
0.01522995 -0.062874727 0.023734031 -0.20715107 -0.25438344 -0.94465739 0.025480686
0.027051549 -0.057778727 0.020285031 -0.14519539 0.31627905 -0.93748909 0.018671323
0.017427951 -0.05579273 0.021359032 0.0094404668 0.079705797 -0.99677372 0.047494438
0.027219851 -0.063046724 0.020037031 -0.14519632 0.31627876 -0.93748909 0.018673668
0.019926449 -0.063072726 0.022113031 -0.18494596 0.016573779 -0.98260897 0.025298525
0.072741948 -0.008624725 -0.0047819689 -0.92041755 -0.28093216 -0.27186149 0.0066030738
0.063722953 0.002077274 0.004529031 -0.69015884 -0.40015957 -0.60295367 0.0044354568
0.057423949 0.0045472682 0.0090370309 -0.52822232 -0.47807541 -0.70173007 0.0067754826
0.06541995 -0.0061007291 0.0075410325 -0.7790432 -0.26857656 -0.56653172 0.0041775848
0.060813949 -0.0032807291 0.01120303 -0.65142018 -0.3041302 -0.69509459 0.0061181071
0.066078946 0.0040272698 -0.00052096881 -0.8241421 -0.39830247 -0.40267223 0.0091458764
0.061955951 0.0084272698 0.0022880305 -0.74014568 -0.52058494 -0.42564726 0.011109083
0.070018947 -0.0055207312 -0.00063896924 -0.88692129 -0.31068045 -0.34183076 0.0038380553
0.073233947 -0.016186729 -0.0030609686 -0.95414311 -0.11537059 -0.27622551 0.0076777046
0.082830951 -0.030431725 -0.0068729687 -0.51798862 -0.50113165 -0.69322062 0.06503357
0.074240953 -0.026078731 -0.0037079696 -0.69614828 -0.084045157 -0.71296144 0.044977665
0.067116946 -0.015989728 0.0081570316 -0.81002659 -0.061518699 -0.58315742 0.0046865996
0.066941947 -0.026027732 0.0083560292 -0.77414429 0.054391067 -0.63066804 0.0025961238
0.071296945 -0.015415728 0.00095203146 -0.89833516 -0.10155091 -0.42741233 0.0056578321
0.071435951 -0.025905728 0.0012780316 -0.8671717 -0.077556886 -0.49193311 0.013927608
0.072955951 -0.0064247251 -0.012032969 -0.95895141 -0.22659501 -0.1704898 0.0043888544
0.073455945 -0.0058557317 -0.018657468 -0.94115782 -0.30727333 -0.14073028 0.0059855459
0.068625949 0.0034472719 -0.0096469689 -0.88866729 -0.41421592 -0.19671176 0.0021756196
0.071393952 -0.0025627315 -0.010064969 -0.92437547 -0.33019742 -0.19104898 0.0041756001
0.074486949 -0.01523573 -0.011697969 -0.96485788 -0.19427004 -0.17694214 0.0036036982
0.084198952 -0.030013725 -0.0093579683 -0.56342161 -0.42417717 -0.70896399 0.053529784
0.077802949 -0.028892726 -0.0098679699 -0.5870927 -0.5095039 -0.62906915 0.043783061
0.074997947 -0.016354732 -0.017880868 -0.97563714 -0.16882955 -0.14010231 0.0032495963
0.048513949 0.0069472715 0.01176103 -0.25648993 -0.49896565 -0.82779592 0.0047740079
0.04005095 0.0079272687 0.012346031 -0.14828649 -0.48850796 -0.85986692 0.004848307
0.075737953 -0.045499727 0.0040350314 -0.35205206 -0.072589144 -0.93316144 0.031428069
0.08515995 -0.036317728 -0.0031799693 -0.52020526 -0.44320381 -0.730039 0.049573082
0.077248946 -0.035642728 -0.0010039695 -0.2865766 -0.49326757 -0.82131654 0.032226685
0.085135952 -0.045399729 -0.0023999698 -0.70871705 0.068796292 -0.7021305 0.029180726
0.080243945 -0.045990728 0.0018350314 -0.57538748 0.071726911 -0.81472969 0.043009475
0.065994948 -0.035620727 0.0088200327 -0.7568534 0.066869825 -0.65015489 0.0050594709
0.06208095 -0.037932731 0.012601031 -0.668118 0.14268312 -0.73024642 0.0029397116
0.067084953 -0.04614573 0.0058170315 -0.49821573 0.01963944 -0.86683065 0.042904783
0.059709951 -0.047737729 0.011182031 -0.526851 0.27108574 -0.80556852 0.0028973371
0.070955947 -0.036269732 0.0010550302 -0.78373605 -0.10993145 -0.61128795 0.036790907
0.070514947 -0.041772727 0.0023300312 -0.53708231 -0.022425119 -0.84323174 0.045972284
0.074001953 -0.052748729 0.0039410312 -0.3528904 0.34862784 -0.86828965 0.037123516
0.083715945 -0.052485727 -0.0052579697 -0.70719039 0.31820387 -0.63136995 0.016325338
0.07736095 -0.055282727 -0.0014569685 -0.52652866 0.51785374 -0.67423666 0.0098816361
0.067053951 -0.054305729 0.0041540321 -0.36187053 0.47896025 -0.7997793 0.015337758
0.05713395 -0.055591729 0.0086890291 -0.57399821 0.45164311 -0.68304068 0.016997997
0.054675952 -0.062306728 0.0068480317 -0.68097848 0.28570601 -0.67427027 0.0093491748
0.067535952 -0.05914373 0.00097603165 -0.37806544 0.51105171 -0.77194083 0.022927471
0.061111949 -0.059374727 0.0019510314 -0.53197962 0.50747716 -0.67783815 0.019725965
0.065661952 -0.062317729 -0.0021579694 -0.39942452 0.69131386 -0.60211724 0.007815362
0.059270948 -0.063331723 -0.0004549697 -0.53198594 0.50746638 -0.67784125 0.019722477
0.088413954 -0.034761727 -0.0099409688 -0.56344873 -0.42420113 -0.70892805 0.053521059
0.075580955 -0.031200729 -0.0075919684 -0.51798266 -0.50117189 -0.693196 0.065022051
0.088642955 -0.04490573 -0.0089619681 -0.88730741 0.07214395 -0.45550054 0.044594601
0.084716946 -0.053453729 -0.008128969 -0.70719075 0.31820732 -0.6313678 0.016323969
0.079580948 -0.05758873 -0.0081209689 -0.58164734 0.58193195 -0.56836736 0.014211843
0.052080952 -0.054849729 0.012474032 -0.60811114 0.31426507 -0.72899812 0.0063965297
0.051469952 -0.063792728 0.011493033 -0.59490627 0.43003449 -0.67908525 0.018004857
0.0095359497 -0.008752726 0.024903031 0.34927082 -0.48287472 -0.80302054 0.018088751
0.0076189488 0.0035272688 0.014757032 0.18082748 -0.437738 -0.88073081 0.0027749946
-0.0019460507 0.0012972727 0.013926031 0.11291887 -0.47436607 -0.87305558 0.0067759664
0.0065599494 -0.0049297288 0.017892031 0.2705847 -0.41650814 -0.86793143 0.023760239
-0.0027770512 -0.0056267306 0.016576031 0.17280744 -0.2860494 -0.94250375 0.014363435
-0.014181051 0.0014672726 0.01358903 0.00073640002 -0.45958629 -0.88813281 0.0045937961
-0.023073051 0.0013872683 0.013670033 -0.03633894 -0.34159034 -0.93914616 0.00271941
-0.012794051 -0.0057087317 0.015122032 -0.0044234376 -0.22387859 -0.97460699 0.0070257671
-0.022838049 -0.0056857318 0.016261032 -0.04023103 -0.22149211 -0.97433192 0.0042004804
0.0075919498 -0.015980728 0.027465032 0.50618094 -0.16235481 -0.84700757 0.034249049
0.002080949 -0.019565731 0.022982029 0.68004489 -0.089362115 -0.72770423 0.030443884
0.0080109499 -0.025403731 0.027063033 0.53606218 0.17085041 -0.82670885 0.018211767
0.0030699503 -0.013018727 0.021679031 0.68004316 -0.089353099 -0.72770685 0.030443544
-0.0028120503 -0.015617728 0.016867032 0.2828007 -0.035433222 -0.95852399 0.027427558
0.0034559499 -0.027760729 0.019800032 0.69481319 0.2732133 -0.66527379 0.01750415
-0.002889052 -0.025752731 0.01487503 0.29757643 0.22898653 -0.92682981 0.031569399
-0.012743052 -0.015698731 0.015993031 0.106451 0.0045626885 -0.99430746 0.028152194
-0.022744052 -0.015808731 0.01763103 -0.038542189 0.067814387 -0.99695325 0.006826716
-0.012837049 -0.025924727 0.015262032 -0.0079677086 0.18697172 -0.98233294 0.0034264468
-0.02276805 -0.025775731 0.015690031 0.038096964 0.28818578 -0.95681643 0.0087176375
-0.032258049 0.0012772679 0.013862031 -0.029402535 -0.25662446 -0.9660638 0.036180034
-0.043591052 0.0071072727 0.016992031 0.084962435 -0.63697439 0.76618856 0.040219717
-0.032703049 -0.0058277249 0.016025031 0.16092302 -0.22269997 -0.96151358 0.0058681369
-0.040977053 -0.0064497292 0.014095033 0.4036282 -0.0080862371 -0.91488731 0.038544029
-0.051358052 0.0082572699 0.017041029 -0.31796536 -0.75363255 0.57527047 0.0096438928
-0.032846048 -0.01592873 0.017218033 0.17248975 0.045638345 -0.98395348 0.0073326589
-0.041263051 -0.015300728 0.014606031 0.42582259 0.091916025 -0.90012586 0.01168427
-0.032329049 -0.025163725 0.014876032 0.19923167 0.37411079 -0.90573061 0.0082584694
-0.039498053 -0.022508726 0.01372203 0.41895124 0.42133331 -0.80433702 0.0084476769
0.010035949 -0.03492073 0.025086032 0.65199536 0.23585072 -0.72060847 0.018073827
0.011338949 -0.04374373 0.023507031 0.55176026 0.18901981 -0.8123005 0.01541355
0.0055329502 -0.03627073 0.017924031 0.69483125 0.28809536 -0.65894651 0.018995659
-0.0049090497 -0.034857728 0.013627032 0.05322047 0.19476742 -0.97940451 0.032201033
0.0073909499 -0.046103727 0.017862031 0.69635779 0.11462907 -0.70848149 0.021707475
-0.0070300512 -0.041946728 0.013105029 -0.061588861 0.12001347 -0.99085999 0.010013676
-0.012150049 -0.035701729 0.01409003 0.10316385 0.13051817 -0.98606396 0.020321144
-0.019507051 -0.031696729 0.013055032 0.18421111 0.32899684 -0.92618972 0.015567646
-0.011219051 -0.04318773 0.013144029 0.16084772 0.15765952 -0.97430557 0.030772509
0.0071609505 -0.05768773 0.024956031 0.1091383 -0.44714984 -0.88777572 0.033779215
-0.0001060497 -0.05906773 0.023786033 0.29156253 -0.59619606 -0.74802518 0.039049324
0.0071619488 -0.06282673 0.026219031 -0.075991563 -0.25113225 -0.96496522 0.025803825
-0.001250051 -0.062903732 0.024831032 0.30103204 -0.48792616 -0.81933367 0.032826744
0.0070829503 -0.052805729 0.019423032 0.29242998 -0.44415969 -0.84688061 0.077966951
-0.0028300509 -0.055804729 0.017885031 0.36673963 -0.60464549 -0.70704025 0.0094668921
-0.0061950497 -0.062899724 0.020227032 0.39517462 -0.55422795 -0.73257649 0.01399758
-0.01293505 -0.05782973 0.01429203 0.10855728 -0.51931661 -0.84765881 0.029278623
-0.022859052 -0.057945728 0.016196029 0.082651727 -0.48762557 -0.86913168 0.025466334
-0.012847051 -0.063325733 0.016280031 0.15547548 -0.66415334 -0.73125088 0.02137457
-0.022776049 -0.06340073 0.01891003 0.14657496 -0.59871596 -0.78743577 0.031854171
-0.03037205 -0.058412727 0.015560033 0.35994217 -0.78289491 -0.50746149 0.050245311
-0.031684048 -0.063565731 0.01706103 0.27816954 -0.61602265 -0.73697889 0.070127271
0.0048079491 0.0077272728 0.011827031 0.21418424 -0.47806239 -0.85181069 0.0033514106
-0.0032980517 0.0061272681 0.010650029 0.10414454 -0.5102818 -0.85367811 0.00511677
-0.012071051 0.0058772713 0.010667032 -0.038321562 -0.47359723 -0.87990749 0.0054788273
-0.02261705 0.0064072683 0.010956032 -0.077510841 -0.42872471 -0.90010399 0.0054551302
-0.033010051 0.0061172694 0.010972032 -0.19225384 -0.14292401 -0.97088164 0.072213292
-0.042574048 0.003307268 0.010214033 -0.12120762 -0.54344511 0.83064801 0.11271713
-0.045553051 -0.0049067289 0.011045029 0.57305831 -0.0035732505 -0.81950676 0.033460639
-0.050039053 0.0024272725 0.0050060321 0.7911132 0.17815721 -0.58514953 0.055837024
-0.051122047 -0.005894728 0.0062900316 0.70376015 -0.11795598 -0.7005769 0.0059455447
-0.054699048 0.0030272678 -0.0013169684 0.84119576 0.021250656 -0.54031295 0.033550162
-0.058211051 0.00048726797 -0.0064769685 0.87406546 -0.16717812 -0.45613703 0.0070871506
-0.056129053 -0.0055737272 0.00050803088 0.84734458 -0.091733746 -0.52306026 0.0057304609
-0.059001051 -0.0061967298 -0.0043169688 0.90336299 -0.11470471 -0.41325316 0.0070019392
-0.046079047 -0.016612731 0.011514032 0.56156623 0.1044868 -0.82080805 0.0091117797
-0.035496049 -0.02919773 0.011668032 0.26235282 0.46205065 -0.8471601 0.0077266204
-0.043198049 -0.026236728 0.00911103 0.53422672 0.41966563 -0.73381364 0.0055706957
-0.04729405 -0.030089729 0.0014280304 0.67109746 0.6318242 -0.38784823 0.0044638016
-0.05095005 -0.015576728 0.0069880318 0.73211843 0.15737711 -0.6627481 0.010024117
-0.049838051 -0.023281731 0.0051750299 0.69276303 0.45652202 -0.55827153 0.0087372195
-0.055753052 -0.015966728 -0.00032796897 0.83963245 0.18885627 -0.50926477 0.0076140678
-0.058810048 -0.013419725 -0.0046909694 0.8909108 0.13929515 -0.43229026 0.012848299
-0.051967047 -0.025483727 -0.0014729686 0.78641486 0.46373811 -0.40804234 0.0062469114
-0.057312049 0.005187273 -0.0086669698 0.82173651 0.22532307 -0.52342957 0.049227774
-0.058591053 0.0022672713 -0.01003797 0.86681664 0.0054754531 -0.498597 0.033453744
-0.060252048 -0.0041697249 -0.0096919686 0.90338933 -0.11469468 -0.41319811 0.0069744457
-0.057294048 -0.019585729 -0.0086949691 0.89179856 0.414648 -0.18100342 0.0088002766
-0.060098052 -0.013466731 -0.0083549693 0.97110236 0.13235515 -0.19860105 0.021748984
-0.05379805 -0.026543729 -0.009507969 0.84889227 0.48539269 -0.20922697 0.0035174063
-0.053419054 -0.027978726 -0.020184468 0.82750958 0.52928513 -0.18731017 0.0049080662
0.0026439503 -0.038511731 0.012019033 0.43814281 0.22409004 -0.87052548 0.040726949
-0.00095405057 -0.036522731 0.011640033 0.042627886 0.20684171 -0.97744536 0.036731411
0.0029499494 -0.046121728 0.01158003 0.46868646 -0.18745917 -0.86324513 0.057940684
-0.0025830492 -0.045995727 0.010440031 -0.011200796 -0.10971908 -0.99389958 0.049078658
-0.016635049 -0.038111731 0.011864031 0.27066356 0.20376664 -0.94086152 0.014609119
-0.022878051 -0.03578373 0.0094310325 0.45068917 0.51399606 -0.72985429 0.025667811
-0.013476051 -0.04710773 0.011724031 0.1486076 -0.041601405 -0.98802084 0.041527726
-0.02032505 -0.045760728 0.0070420299 0.6727168 0.11576855 -0.73078698 0.042428575
-0.026419051 -0.040261727 0.0021960307 0.59951371 0.53357315 -0.59655923 0.043033648
-0.024669051 -0.04407873 -0.00098896958 0.83461094 0.44335803 -0.32689163 0.075001374
-0.0049790516 -0.05251573 0.011275033 0.062156912 -0.34150508 -0.9378224 0.049006518
-0.012660049 -0.05306273 0.011988031 0.18698144 -0.34636065 -0.9192782 0.045123689
-0.021894049 -0.053217728 0.0096630324 0.24271692 -0.67756188 -0.69426107 0.051133763
-0.02391905 -0.051587727 0.0019070301 0.3495166 -0.61714137 -0.70496428 0.042339273
-0.025064051 -0.048084728 -0.015044969 0.73811674 -0.5837099 0.33832872 0.10117272
-0.026767049 -0.048482727 -0.01897477 0.55382234 -0.62194115 0.55359733 0.074788764
-0.02576305 -0.053357728 -0.015839968 0.71343958 -0.5019455 0.48893222 0.076894961
-0.027069051 -0.05203373 -0.01800907 0.58453882 -0.60774499 0.53755039 0.087734967
-0.03237005 -0.034395732 0.0080740321 -0.29371658 -0.70654899 0.64383167 0.0069489204
-0.04064405 -0.032694727 0.005486032 0.51250762 0.6654157 -0.54273182 0.0082743121
-0.033742048 -0.039330728 -0.00041596964 -0.36954576 -0.80908924 0.45695794 0.0015373469
-0.041956052 -0.035865732 -0.0020739697 -0.53203923 -0.76704764 0.35856968 0.0046437387
-0.031776052 -0.042084727 -0.0046589691 -0.36452094 -0.86008775 0.3568942 0.0045510111
-0.037919052 -0.041094728 -0.0071929693 -0.45134526 -0.75177139 0.48075694 0.0056222733
-0.049119048 -0.031373732 -0.006269969 0.72853959 0.59948909 -0.33142552 0.0062416438
-0.033035051 -0.057507727 0.010500031 0.53365648 -0.68499517 -0.49597609 0.040642425
-0.036392048 -0.063139729 0.010662032 0.53365141 -0.68499339 -0.49598423 0.04063797
-0.038169049 -0.065232724 0.0061110314 0.58283192 -0.78510177 -0.20957632 0.040994368
-0.043621048 -0.037644729 -0.0086009689 -0.52006978 -0.77749521 0.35359377 0.0054407413
-0.032369051 -0.043487728 -0.0085709691 -0.34448564 -0.88180333 0.32210648 0.0041377745
-0.038419053 -0.04117373 -0.0080809686 -0.49395499 -0.764835 0.41356477 0.0061281542
-0.02833005 -0.04853873 -0.023476269 0.58451724 -0.60774255 0.53757656 0.087737001
-0.050141051 -0.031998731 -0.0095669683 0.73846012 0.65186685 -0.17247072 0.0068075666
-0.033392049 -0.057972729 -0.016191969 0.46874011 -0.60717469 -0.64157742 0.005866745
-0.038169049 -0.06039473 -0.01688797 0.46878213 -0.60720211 -0.64152074 0.0058589075
-0.037308052 -0.06213773 -0.014141969 0.46878806 -0.60721052 -0.64150858 0.0058575436
-0.039278053 -0.064150728 -0.015343969 0.46882352 -0.60723507 -0.64145941 0.0058502122
-0.032300051 -0.05517273 -0.019694969 0.5694347 -0.66778845 -0.47937754 0.016703486
-0.039478049 -0.059103727 -0.019144369 0.47598499 -0.67020458 -0.56944197 0.0028901543
-0.041848049 -0.062822729 -0.018713169 0.47598499 -0.67020458 -0.56944197 0.0028901543
0.01245595 0.081097275 -0.047036968 -0.69538468 -0.23898028 -0.67773783 0.0056980988
0.01388295 0.072057277 -0.046169966 -0.5923745 -0.24637972 -0.76706547 0.01349183
0.013136949 0.059987277 -0.036405668 -0.43222958 -0.51712793 -0.73875326 0.00369721
0.013103949 0.058047265 -0.036109168 -0.39357325 -0.48935169 -0.77822554 0.0063953851
0.015829951 0.064427271 -0.042565968 -0.52248943 -0.46689072 -0.71345484 0.006487147
0.01478895 0.058327273 -0.038553968 -0.45074272 -0.5343765 -0.71503335 0.0045233937
0.01509495 0.081347272 -0.05104097 -0.69996727 -0.29157621 -0.65194255 0.0068006245
0.017447948 0.074337274 -0.050650969 -0.64671504 -0.3023999 -0.70022422 0.011895906
0.01997805 0.067227274 -0.048758969 -0.59230733 -0.37863559 -0.71120119 0.0092242574
0.0035189502 0.080077276 -0.036926668 0.67986989 0.016672963 0.73314315 0.0095390202
0.0018309504 0.079887271 -0.03674037 0.67986888 0.016679294 0.73314404 0.0095392438
0.0033449493 0.076827273 -0.036267269 0.67986959 0.016676841 0.73314333 0.0095393462
-0.0021350496 0.07323727 -0.032417368 0.63255119 -0.029571004 0.7739538 0.017594624
0.0086819492 0.081847265 -0.042244971 0.70246118 0.038495716 0.71068025 0.0076522529
0.0077419505 0.073797271 -0.041867968 0.66117793 0.027738377 0.7497161 0.0099074291
0.0019559506 0.069687277 -0.037457969 0.60842365 0.096019991 0.78778219 0.021824442
-0.010309052 0.070647269 -0.029659469 -0.29537752 -0.14131819 -0.94487101 0.06837032
0.0062049497 0.061407268 -0.035112269 -0.38129494 -0.48171195 -0.78902966 0.006038486
-0.0025160499 0.063857272 -0.032231167 -0.62478781 -0.1951244 -0.75602031 0.019099949
0.006480949 0.056467265 -0.03110097 -0.37730029 -0.50651139 -0.77530044 0.0046436773
-0.0012910496 0.055017278 -0.028569169 -0.46141326 -0.12661076 -0.87810451 0.027269369
0.0079229493 0.065837264 -0.03968497 -0.43273494 -0.47357085 -0.76711875 0.0067598876
0.002080949 0.068547279 -0.03752197 0.60842371 0.096020497 0.78778213 0.021823406
-0.012638051 0.065477267 -0.02805155 -0.30108872 -0.091772109 -0.94916987 0.064206578
-0.019169051 0.064827278 -0.027453879 -0.16683987 -0.35772914 -0.91880053 0.042867519
-0.0081690513 0.058817267 -0.027374597 -0.50185984 -0.16620237 -0.84883064 0.034010869
-0.037348047 0.055177271 -0.035869271 0.2064072 -0.93305117 -0.29463804 0.015543612
-0.042203054 0.055737272 -0.033299968 0.2064072 -0.93305117 -0.29463804 0.015543612
-0.036898047 0.060227275 -0.045093969 0.19103831 -0.86545706 -0.46312907 0.031841654
-0.042542048 0.061187267 -0.043061972 0.19091524 -0.86551589 -0.46306965 0.031785745
-0.036987051 0.057857275 -0.040868968 0.18612653 -0.91787857 -0.350508 0.025151037
-0.04422605 0.057837278 -0.03913397 0.23880717 -0.85915995 -0.45256522 0.034051653
-0.04791905 0.059387267 -0.046542969 0.22228232 -0.8792305 -0.42136011 0.03356503
-0.04809805 0.055857271 -0.042251967 0.18266542 -0.91310471 -0.36451766 0.025214965
-0.044610053 0.070207268 -0.065245971 -0.025542269 -0.91648245 -0.39925876 0.019174108
-0.048469052 0.069557264 -0.066476971 -0.025476603 -0.91650516 -0.39921072 0.019112799
-0.036840051 0.063207269 -0.052323967 0.15715888 -0.88196146 -0.44434786 0.02887252
-0.04301405 0.065187275 -0.052026968 0.1767879 -0.88837665 -0.42371312 0.027746443
-0.03691905 0.065427274 -0.058217969 0.054610178 -0.91556865 -0.39843675 0.014395946
-0.044367053 0.067857265 -0.059346966 0.098481193 -0.88386661 -0.45725399 0.010965914
-0.048689052 0.061687276 -0.053239971 0.21544355 -0.87500358 -0.43353528 0.026826311
-0.048812047 0.057737276 -0.048600972 0.2222922 -0.87915635 -0.42150956 0.033694346
-0.049130052 0.066347271 -0.061867967 0.18613139 -0.85368556 -0.4863908 0.012735247
-0.0055860505 0.048657268 -0.028012259 -0.39771387 -0.18987525 -0.89764744 0.019185906
-0.037036054 0.070877269 -0.074754968 -0.15292998 -0.88486844 -0.44002312 0.012427152
-0.042905048 0.07346727 -0.072685972 -0.1860113 -0.85304689 -0.48755604 0.015654244
-0.040169053 0.079347268 -0.082327969 -0.18646584 -0.85284752 -0.48773098 0.015722066
-0.035911053 0.075367272 -0.081946969 -0.18632874 -0.85291398 -0.48766747 0.015678046
-0.040854052 0.077177271 -0.079289965 -0.18646584 -0.85284752 -0.48773098 0.015722066
-0.048849054 0.072507277 -0.071701966 -0.18629308 -0.85293317 -0.48764735 0.01566753
