# .PCD v0.7 - Point Cloud Data file format
VERSION 0.7
FIELDS x y z
SIZE 4 4 4
TYPE F F F
COUNT 1 1 1
WIDTH 397
HEIGHT 1
VIEWPOINT 0 0 0 1 0 0 0
POINTS 397
DATA ascii
-1.1542389 -1.0461706 -1.1189116
-1.1555229 -1.0395283 -1.1125052
-1.1542959 -1.030255 -1.1027189
-1.1476129 -1.059045 -1.1414119
-1.1470951 -1.0488 -1.147385
-1.13823 -1.059207 -1.147297
-1.144767 -1.055897 -1.14659
-1.139945 -1.044355 -1.1490901
-1.131409 -1.054859 -1.1480501
-1.154349 -1.047261 -1.139052
-1.157178 -1.0407794 -1.1323613
-1.152233 -1.053594 -1.134841
-1.155118 -1.0462067 -1.1262486
-1.151492 -1.044212 -1.14344
-1.15485 -1.0342761 -1.136746
-1.1511309 -1.052421 -1.14421
-1.1577439 -1.0313151 -1.122691
-1.156279 -1.021351 -1.112592
-1.1574739 -1.0360976 -1.1173636
-1.1555871 -1.025107 -1.1058401
-1.1555721 -1.0251161 -1.1271241
-1.1534491 -1.014248 -1.1152591
-1.14756 -1.035764 -1.1447641
-1.1494449 -1.0255071 -1.1381221
-1.148435 -1.0185565 -1.1328015
-1.1481251 -1.005444 -1.115039
-1.152097 -1.022827 -1.0947701
-1.185196 -0.97649002 -1.059594
-1.18505 -0.97511899 -1.077989
-1.1887161 -0.97134101 -1.073525
-1.1784351 -0.97668505 -1.0707301
-1.1851881 -0.97640604 -1.066558
-1.185354 -0.97166604 -1.0546321
-1.1870729 -0.96237189 -1.0638589
-1.184606 -0.96413398 -1.055128
-1.177362 -0.95409197 -1.0470099
-1.1741989 -0.98440391 -1.0571449
-1.178984 -0.97996503 -1.054221
-1.1706109 -0.98478997 -1.0536389
-1.1704049 -0.98028296 -1.046098
-1.170101 -0.98139805 -1.0638371
-1.1788549 -0.98054898 -1.061654
-1.162509 -0.98130494 -1.0550159
-1.1616299 -0.97710896 -1.041919
-1.179444 -0.97151893 -1.0468949
-1.170216 -0.97293699 -1.040921
-1.1750911 -0.96378511 -1.0408741
-1.1707989 -0.95505095 -1.0366719
-1.1645801 -0.96531111 -1.033951
-1.16241 -0.95503408 -1.0283041
-1.1826119 -0.97363198 -1.0959799
-1.180045 -0.97139806 -1.0976131
-1.1721569 -0.96392691 -1.13573
-1.1722019 -0.96247184 -1.13423
-1.1698697 -0.96426964 -1.1331
-1.1589781 -0.96869218 -1.1239339
-1.165773 -0.95936 -1.102587
-1.1694722 -0.9613452 -1.1247129
-1.1683388 -0.95473075 -1.1146719
-1.1621779 -0.96359587 -1.1147979
-1.1668082 -0.95680428 -1.107556
-1.186331 -0.97074401 -1.090753
-1.1868911 -0.96203101 -1.0815201
-1.1826451 -0.96486205 -1.092697
-1.183145 -0.95553499 -1.08339
-1.184958 -0.953605 -1.0740269
-1.1798249 -0.944516 -1.072171
-1.174435 -0.93488503 -1.06505
-1.166005 -0.95307499 -1.09843
-1.1648226 -0.94943452 -1.099612
-1.171445 -0.93071496 -1.06373
-1.1770099 -0.97472095 -1.0900309
-1.167677 -0.977422 -1.080845
-1.1734151 -0.97213101 -1.092996
-1.154249 -0.97528392 -1.0857149
-1.162727 -0.97439694 -1.08555
-1.1531531 -1.012495 -1.104102
-1.1516391 -1.013553 -1.094774
-1.1485109 -1.00093 -1.0837389
-1.148772 -1.003214 -1.102862
-1.146783 -0.99088299 -1.09108
-1.1496849 -1.003876 -1.0960709
-1.1486189 -0.99648196 -1.088643
-1.161828 -0.98205602 -1.073948
-1.148638 -0.99132603 -1.0739681
-1.151382 -0.98254496 -1.0647629
-1.148962 -0.98158699 -1.0823851
-1.155468 -0.98016202 -1.079414
-1.148983 -0.98621202 -1.077929
-1.1491109 -0.98120999 -1.0725789
-1.1518395 -0.96457547 -1.1153359
-1.161281 -0.96328294 -1.096802
-1.1512191 -0.97191411 -1.0865551
-1.154829 -0.96714407 -1.0894351
-1.1545503 -0.96242428 -1.106174
-1.1552683 -0.96071327 -1.0986249
-1.144377 -0.99515104 -1.103374
-1.1437039 -0.98622096 -1.094317
-1.14461 -0.97491705 -1.0862271
-1.183148 -0.97468609 -1.0854981
-1.1885879 -0.96659899 -1.0785309
-1.1727991 -0.97547311 -1.0762742
-1.1841849 -0.95333594 -1.065611
-1.178269 -0.94595504 -1.056666
-1.176054 -0.94877398 -1.04928
-1.179158 -0.94254595 -1.0652879
-1.1731189 -0.93626791 -1.0576489
-1.16117 -0.93300903 -1.0467991
-1.1682321 -0.98027003 -1.070518
-1.1528051 -0.97761005 -1.055045
-1.166373 -0.94689101 -1.035858
-1.156189 -0.94789195 -1.024843
-1.152421 -0.93204701 -1.0340461
-1.145069 -0.93046099 -1.026732
-1.1650801 -0.92827708 -1.053637
-1.156487 -0.92888796 -1.045741
-1.1353091 -0.92586511 -1.0232561
-1.1442779 -1.066366 -1.127808
-1.1330901 -1.0740631 -1.1262271
-1.1396979 -1.070732 -1.123806
-1.1279449 -1.074954 -1.120831
-1.1319211 -1.07324 -1.1149931
-1.119458 -1.074664 -1.112414
-1.121933 -1.073184 -1.1049991
-1.144159 -1.06538 -1.107779
-1.147045 -1.0597967 -1.1022117
-1.148489 -1.060546 -1.1227571
-1.149298 -1.0509216 -1.1142836
-1.1444468 -1.065764 -1.1157049
-1.147402 -1.0567226 -1.1079667
-1.149604 -1.0518863 -1.0936784
-1.1490309 -1.042416 -1.0837229
-1.150365 -1.04158 -1.1050349
-1.149899 -1.031144 -1.0950049
-1.1473579 -1.0448858 -1.0989478
-1.145996 -1.0334179 -1.087582
-1.1375359 -1.068023 -1.1022749
-1.142138 -1.0633447 -1.0950267
-1.1293269 -1.070016 -1.094599
-1.1323891 -1.063661 -1.084978
-1.137175 -1.069581 -1.108744
-1.1252841 -1.072008 -1.098166
-1.143692 -1.0550499 -1.0850558
-1.14378 -1.045066 -1.074828
-1.1346661 -1.0558463 -1.0749063
-1.1339861 -1.0451471 -1.0650891
-1.107574 -1.073283 -1.100791
-1.109782 -1.071102 -1.094978
-1.100417 -1.0693491 -1.0845901
-1.087888 -1.0639991 -1.071031
-1.1190571 -1.067471 -1.08325
-1.1219081 -1.0630491 -1.0749451
-1.109302 -1.0644 -1.07287
-1.109838 -1.0610473 -1.0649853
-1.1142581 -1.068866 -1.086524
-1.104418 -1.066473 -1.0751331
-1.1023411 -1.062564 -1.065527
-1.123215 -1.0547178 -1.0649267
-1.1219001 -1.0432301 -1.0551001
-1.1110071 -1.0525351 -1.0547221
-1.109768 -1.040874 -1.0452141
-1.1020839 -1.033927 -1.036781
-1.101189 -1.0578744 -1.0565454
-1.089976 -1.061409 -1.0647429
-1.09206 -1.055464 -1.054278
-1.082803 -1.0607721 -1.057407
-1.08489 -1.053499 -1.0476409
-1.101564 -1.0501089 -1.0482329
-1.0976759 -1.038453 -1.034323
-1.090814 -1.037185 -1.0259269
-1.092461 -1.0455576 -1.0428445
-1.095521 -1.037008 -1.035207
-1.0869449 -1.0454779 -1.0377449
-1.0889951 -1.0402606 -1.0304255
-1.1165479 -1.0661809 -1.137689
-1.136561 -1.066473 -1.139372
-1.1435391 -1.064682 -1.135543
-1.131395 -1.071182 -1.1328911
-1.137877 -1.070238 -1.1311051
-1.133461 -1.063779 -1.1436781
-1.1406701 -1.062465 -1.143955
-1.1237949 -1.067601 -1.13807
-1.110707 -1.0683941 -1.130619
-1.0926501 -1.0741791 -1.1259711
-1.1001679 -1.068754 -1.1217339
-1.122122 -1.073495 -1.124699
-1.112283 -1.073519 -1.114486
-1.115491 -1.07047 -1.1294529
-1.1053269 -1.070935 -1.119102
-1.111497 -1.059144 -1.140103
-1.1054416 -1.0530195 -1.1411721
-1.123755 -1.0572 -1.1456449
-1.1173271 -1.05955 -1.1424031
-1.103021 -1.06101 -1.132823
-1.090583 -1.0730619 -1.127757
-1.091194 -1.066156 -1.1224821
-1.0957191 -1.0553381 -1.132215
-1.1486629 -1.058496 -1.129033
-1.150228 -1.0506181 -1.12155
-1.08849 -1.077994 -1.10381
-1.090457 -1.080201 -1.122414
-1.0933081 -1.074466 -1.115178
-1.0821551 -1.0809571 -1.1133081
-1.085799 -1.0803 -1.1078249
-1.1031539 -1.073036 -1.103946
-1.1046231 -1.072903 -1.09772
-1.089626 -1.071123 -1.094511
-1.0933989 -1.069113 -1.085544
-1.09474 -1.070232 -1.108258
-1.0905119 -1.071066 -1.102314
-1.081147 -1.076164 -1.094825
-1.0722109 -1.076679 -1.104802
-1.073215 -1.0741251 -1.09565
-1.079803 -1.069429 -1.08632
-1.0830519 -1.064044 -1.075114
-1.074496 -1.059745 -1.065941
-1.071787 -1.066733 -1.081964
-1.072531 -1.0612839 -1.0753089
-1.0654789 -1.0617249 -1.076916
-1.066168 -1.057037 -1.0695109
-1.085252 -1.076694 -1.127224
-1.0911621 -1.06621 -1.1179521
-1.076087 -1.077902 -1.117309
-1.0683719 -1.074809 -1.1048349
-1.064245 -1.069681 -1.095564
-1.087579 -1.062776 -1.070803
-1.077655 -1.061184 -1.061249
-1.1461049 -1.03266 -1.074355
-1.1482389 -1.020597 -1.084718
-1.145178 -1.010201 -1.0729229
-1.142917 -1.022673 -1.075202
-1.1409039 -1.01202 -1.065168
-1.1450111 -0.99762905 -1.060858
-1.145012 -0.98881805 -1.0518861
-1.1393679 -1.000549 -1.055069
-1.14053 -0.99164402 -1.045048
-1.141439 -1.033278 -1.0651829
-1.1333709 -1.023284 -1.0560869
-1.1316141 -1.033295 -1.056179
-1.1386149 -1.02297 -1.063623
-1.131204 -1.0122759 -1.055142
-1.121994 -1.021477 -1.0492671
-1.119077 -1.0102069 -1.04493
-1.130249 -1.001471 -1.04513
-1.131777 -0.99310803 -1.035019
-1.119292 -1.000646 -1.0348099
-1.119869 -0.99114299 -1.025028
-1.145094 -0.97982502 -1.042591
-1.154054 -0.97162205 -1.037088
-1.140152 -0.98154294 -1.035041
-1.1375999 -0.97133899 -1.026145
-1.1552529 -0.96390396 -1.030471
-1.1312441 -0.98259312 -1.0247971
-1.1292601 -0.97156411 -1.0170081
-1.1196669 -0.98076797 -1.0160789
-1.121168 -0.97244507 -1.0115651
-1.1201199 -1.033343 -1.048687
-1.109718 -1.033067 -1.0411669
-1.111608 -1.021678 -1.042834
-1.1087241 -1.0069391 -1.0338051
-1.1017129 -1.023474 -1.0348589
-1.101113 -1.0042959 -1.024595
-1.1083431 -1.0001611 -1.0257201
-1.111313 -0.99176896 -1.022368
-1.0999111 -1.000146 -1.019165
-1.097223 -1.030338 -1.0230451
-1.0946729 -1.021901 -1.014398
-1.0933471 -1.031602 -1.017907
-1.091882 -1.0218019 -1.009418
-1.096572 -1.024727 -1.027849
-1.0920351 -1.0132761 -1.014937
-1.0872821 -1.012253 -1.004477
-1.0864171 -0.99957806 -1.002807
-1.088205 -0.99155802 -0.99276704
-1.0829091 -1.001654 -0.99739903
-1.085464 -0.99435502 -0.98739499
-1.0871021 -0.98340905 -0.98478705
-1.0834501 -0.98359805 -0.97832203
-1.1495091 -1.014856 -1.086107
-1.1467321 -1.005573 -1.0764011
-1.146499 -0.99681705 -1.067378
-1.147318 -0.98656005 -1.0573621
-1.1470441 -0.97618306 -1.046679
-1.143476 -0.96586096 -1.034305
-1.136093 -0.96371305 -1.0231121
-1.137388 -0.95318794 -1.02596
-1.1303501 -0.95338905 -1.0165551
-1.131665 -0.94220495 -1.0218999
-1.1239649 -0.93353295 -1.0158479
-1.124889 -0.94260007 -1.0118691
-1.119441 -0.93490309 -1.0083741
-1.124856 -0.96365595 -1.01088
-1.112425 -0.97439301 -1.008878
-1.112829 -0.96413398 -1.004137
-1.1012931 -0.95235509 -0.9961881
-1.121366 -0.95425898 -1.007045
-1.111848 -0.95355797 -1.0004519
-1.11366 -0.94213998 -1.001852
-1.1118441 -0.9347201 -1.0013421
-1.102998 -0.94478101 -0.99612099
-1.1264751 -0.9322421 -1.0214471
-1.122184 -0.92959201 -1.017248
-1.1160929 -0.92827696 -1.00915
-1.101674 -0.93223196 -0.99669194
-1.108133 -0.92976791 -1.0000069
-1.0939029 -0.93491501 -0.99322999
-1.0817915 -0.92461753 -0.99217403
-1.1034621 -1.012884 -1.0377041
-1.105072 -1.008907 -1.036095
-1.095413 -1.012751 -1.0303999
-1.094399 -1.006078 -1.0249929
-1.1037071 -0.99345005 -1.0188251
-1.1036021 -0.98477399 -1.01491
-1.094571 -0.99646902 -1.012988
-1.0912361 -0.98493809 -1.0074861
-1.091889 -0.97399801 -1.006891
-1.084887 -0.97256297 -1.004824
-1.088714 -1.004517 -1.016077
-1.0888801 -0.99754906 -1.0078491
-1.0864 -0.98599005 -0.99846005
-1.080274 -0.97620898 -0.99806499
-1.066825 -0.95811206 -1.0004231
-1.0624973 -0.95247924 -0.99832207
-1.0607569 -0.95661789 -0.99445093
-1.0599118 -0.95314288 -0.99446899
-1.1036329 -0.97392499 -1.006806
-1.102746 -0.963063 -1.0002329
-1.0902081 -0.96406299 -1.000499
-1.092015 -0.95419097 -0.99574995
-1.0832111 -0.96178603 -0.99971104
-1.0816671 -0.95310903 -0.99455804
-1.092311 -0.94283205 -0.99307907
-1.082947 -0.97568601 -0.98302901
-1.077477 -0.97249103 -0.97404003
-1.0708331 -0.9661631 -0.97017008
-1.0837091 -0.94599909 -0.99230605
-1.077896 -0.95728099 -0.997715
-1.0806999 -0.95172095 -0.99397892
-1.0579396 -0.94641471 -0.99670297
-1.088389 -0.9385131 -0.99143207
-1.0557899 -0.94863701 -0.982207
-1.052672 -0.94316399 -0.97500801
-1.0536749 -0.94677097 -0.97412598
-1.05046 -0.94359899 -0.97014296
-1.055087 -0.946226 -0.986099
-1.0517067 -0.93959868 -0.97499007
-1.0484188 -0.93765974 -0.96890098
-1.1640151 -0.96363997 -1.167125
-1.1558421 -0.96593404 -1.159512
-1.1535363 -0.97495234 -1.146696
-1.1518928 -0.97521579 -1.1447229
-1.151816 -0.97148508 -1.1538291
-1.1497279 -0.97445595 -1.146688
-1.160261 -0.96227503 -1.170014
-1.1536411 -0.96501803 -1.1653571
-1.1484231 -0.9694401 -1.1607771
-1.1731054 -0.96481329 -1.157168
-1.1731015 -0.96331149 -1.1552899
-1.1705146 -0.96529859 -1.1537439
-1.1707746 -0.96366858 -1.1446739
-1.169557 -0.96465802 -1.164101
-1.1618841 -0.964095 -1.155111
-1.162184 -0.96271896 -1.145215
-1.1709425 -0.95825255 -1.1339101
-1.1562498 -0.96931374 -1.1411841
-1.1615808 -0.9634738 -1.134913
-1.155321 -0.97360098 -1.1365199
-1.1564028 -0.96836078 -1.127298
-1.1561069 -0.96645898 -1.147332
-1.16098 -0.96278 -1.1442001
-1.1673805 -0.95753151 -1.1264111
-1.167328 -0.95159805 -1.1192299
-1.1613973 -0.9626773 -1.1242199
-1.1492628 -0.92500377 -1.0914011
-1.1523921 -0.92271811 -1.0871061
-1.145088 -0.91622895 -1.0969009
-1.14808 -0.91261703 -1.092217
-1.1469431 -0.92036504 -1.094442
-1.148658 -0.91486096 -1.087183
-1.142799 -0.903759 -1.08504
-1.1435599 -0.90787101 -1.081331
-1.1349161 -0.88836503 -1.099169
-1.1330351 -0.88327503 -1.09466
-1.1408379 -0.90905696 -1.099939
-1.143115 -0.90318 -1.095745
-1.137164 -0.90308404 -1.10208
-1.1384652 -0.89450711 -1.0970621
-1.138402 -0.89629197 -1.08657
-1.139091 -0.90080798 -1.082497
-1.134434 -0.88722301 -1.0907891
-1.1505997 -0.96462274 -1.116643
-1.1260771 -0.88643003 -1.1074131
-1.130736 -0.88263005 -1.1041341
-1.126974 -0.87572402 -1.1127501
-1.1233749 -0.88036299 -1.1130279
-1.1278419 -0.87807697 -1.109895
-1.1307601 -0.87767011 -1.0972301
