# .PCD v0.7 - Point Cloud Data file format
VERSION 0.7
FIELDS x y z normal_x normal_y normal_z curvature
SIZE 4 4 4 4 4 4 4
TYPE F F F F F F F
COUNT 1 1 1 1 1 1 1
WIDTH 397
HEIGHT 1
VIEWPOINT 0 0 0 1 0 0 0
POINTS 397
DATA ascii
0.010961538 0.11666597 0.040303867 -0.16884723 -0.45159745 -0.87609947 0.0030943851
-0.0088599641 0.12470134 0.055893295 -0.011541721 -0.46529692 -0.88507944 0.0056861709
-0.014257704 0.12278032 0.049665019 0.14614862 -0.496488 -0.85565197 0.0056441575
0.025138684 0.09555278 0.042693276 -0.52052444 -0.53684396 -0.66396749 0.0069778459
0.0088672228 0.11667392 0.028957954 -0.50764346 -0.74296999 -0.4362267 0.012873111
0.037513547 0.10911605 0.0221736 -0.74675208 -0.59207439 -0.30300051 0.00816618
0.021396762 0.12811506 0.061212629 -0.59785169 -0.67759848 -0.42829144 0.015595004
0.040272694 0.11986873 0.01919955 -0.59158164 -0.74482262 -0.30865923 0.0096910615
0.037473507 0.10742394 0.017452123 -0.79553264 -0.56393856 -0.22158764 0.0077297003
0.021397525 0.12329566 0.036058642 -0.31086302 -0.74870217 -0.58549905 0.010855215
0.011020686 0.10077861 0.020213112 -0.15485749 -0.70128393 -0.69585913 0.0058102743
0.021531682 0.1049426 0.030183215 -0.32298067 -0.56194073 -0.76151562 0.0089428844
0.0077626235 0.11390716 0.049304817 -0.17445859 -0.523031 -0.83426785 0.0039783465
0.014594188 0.12476689 0.024934795 -0.40127173 -0.79735625 -0.45078158 0.011859259
-0.00010688603 0.14510171 0.02779785 -0.14846934 -0.86061466 -0.48713383 0.01193497
0.015710488 0.12209173 0.03076664 -0.50815374 -0.73633546 -0.44675478 0.013027777
0.0062434003 0.14180136 0.036713514 0.021843739 -0.73292792 -0.6799556 0.0062952945
-0.0038255583 0.13290903 0.023718398 0.21974316 -0.7375769 -0.63850862 0.0058935038
-0.00099683856 0.13132456 0.048004724 0.0033577818 -0.55838519 -0.82957506 0.0055112438
-0.018164957 0.10884687 0.025704702 0.18408856 -0.58010685 -0.79346544 0.0045971852
-9.5635885e-05 0.13218863 0.027467201 0.060926694 -0.89214551 -0.44762078 0.0071681938
-0.014464421 0.1228558 0.040047251 0.25322157 -0.84287763 -0.474801 0.004851752
0.021087494 0.11448085 0.0040070331 -0.30896688 -0.90670973 -0.28708377 0.0081693754
0.0054387711 0.13400739 0.0082578957 -0.18857701 -0.8954969 -0.40314254 0.0061773811
-0.0087482985 0.12734097 0.041447446 -0.030506011 -0.93418866 -0.35547286 0.0078295255
-0.003600412 0.14303599 0.01989793 0.20082667 -0.90866685 -0.36605063 0.0041274121
-0.01500087 0.10664468 0.02474039 0.17915623 -0.52085388 -0.83463424 0.0074276463
-0.079700001 0.13325731 0.048329804 -0.13361748 -0.37986907 -0.91533923 0.053038858
-0.069989964 0.15744327 0.031160109 -0.52148068 -0.439255 -0.73151416 0.026551403
-0.047681581 0.14290522 0.043458592 -0.10976201 -0.60856271 -0.78587765 0.030716548
-0.07305941 0.13155761 0.047958277 -0.64690953 -0.27790511 -0.71012449 0.0061066193
-0.070755802 0.13337229 0.048380211 -0.23028101 -0.50395799 -0.8324644 0.024193831
-0.077469289 0.12804067 0.037928775 0.20600085 -0.40636119 -0.89018774 0.042999495
-0.070617184 0.14463894 0.053496681 0.39670554 -0.63132799 -0.66637051 0.020071341
-0.073381752 0.13701341 0.037872545 0.49222195 -0.44529268 -0.74795187 0.027716169
-0.10917582 0.13624559 0.035929412 0.71588868 -0.35794571 -0.59948176 0.0061506582
-0.079642154 0.12121741 0.049866006 -0.44702551 0.026569208 -0.89412653 0.049122065
-0.055181023 0.13386662 0.066827729 -0.15109582 -0.14565089 -0.97772992 0.012987013
-0.055528712 0.13076957 0.038911879 0.49363372 -0.27387455 0.82542014 0.063380361
-0.076301016 0.11727089 0.051639941 0.089953512 -0.40322584 0.91066861 0.043889515
-0.045475602 0.12778045 0.048174229 0.7461043 0.10399755 0.65765715 0.025209237
-0.064055368 0.1275523 0.037456952 -0.43632671 -0.33852753 -0.83367741 0.025434997
-0.082604215 0.12664916 0.056444094 0.73735356 -0.31851915 0.59569734 0.030531738
-0.074586362 0.13279504 0.062657043 0.16830848 -0.65331757 0.7381385 0.032480057
-0.087770887 0.13544737 0.054400906 0.38682958 -0.01568961 -0.92201769 0.017833892
-0.074631877 0.10109642 0.046740107 0.15518065 0.31381333 -0.93671775 0.021380307
-0.086950026 0.14384866 0.040021501 0.66413164 -0.060075819 -0.74519807 0.016970368
-0.10884164 0.11718092 0.04468371 0.75927979 -0.1181355 -0.63995177 0.015361789
-0.082808927 0.11469764 0.035561915 0.4467158 0.38261694 -0.80873305 0.015345791
-0.094990402 0.11277138 0.042976104 0.67966002 0.12636337 -0.72256106 0.032478429
-0.051983926 0.15278731 0.018251572 -0.33762839 -0.71236515 -0.61525851 0.0429281
-0.058935013 0.14037536 0.017247699 -0.83237761 -0.38691509 -0.39679241 0.023426346
-0.033405896 0.16356412 0.012537053 -0.29537779 -0.14131801 -0.94487101 0.06837023
-0.062536038 0.17758702 -0.0092876479 -0.29537809 -0.14131688 -0.94487107 0.068370357
-0.034975886 0.16170469 -0.023493363 -0.29537809 -0.14131688 -0.94487107 0.068370357
-0.020301439 0.14537977 0.0013144406 -0.43437883 -0.10727591 -0.89431924 0.027991556
-0.032879084 0.15863632 0.012411302 -0.66571194 -0.53041917 -0.52486485 0.10940588
-0.048692539 0.1618049 0.0028959841 -0.088684477 -0.32659593 -0.9409942 0.04067177
-0.052328531 0.17105211 -0.0031847958 -0.19820534 -0.51164192 -0.83602464 0.018989481
-0.034038693 0.14675888 0.0052855085 -0.46768439 -0.15497798 -0.8702029 0.021614425
-0.058251295 0.15588067 -0.0060470626 -0.36611214 -0.40681309 -0.83693784 0.031957328
-0.057203654 0.15121339 0.036275968 -0.34849492 -0.73624218 -0.58008516 0.044005789
-0.077106431 0.17062911 0.045213774 0.037774783 -0.84826654 -0.52822059 0.019414406
-0.058387242 0.13933 0.017650427 -0.34841642 -0.73644722 -0.57987207 0.043948863
-0.071581185 0.15840474 0.02022632 0.084375083 -0.85251749 -0.51584369 0.023248179
-0.07390029 0.17004068 0.048363306 0.36376482 -0.81080192 -0.4585579 0.0071089235
-0.10652909 0.16350387 0.02436763 0.41848749 -0.81323707 -0.40436816 0.011017915
-0.07571543 0.1450655 0.016700838 0.79803133 -0.46404663 -0.38445634 0.034933198
-0.071807556 0.15564026 0.019295901 -0.66573882 -0.53037977 -0.52487051 0.10940783
-0.038291216 0.15571058 0.002933362 -0.36614218 -0.40679416 -0.83693397 0.031956732
-0.099683642 0.13687733 -0.0046839099 0.8514818 -0.36151975 -0.37984514 0.047997151
-0.050804332 0.15533122 0.034443844 -0.71406651 -0.25552902 -0.65177757 0.026650187
-0.058030374 0.13489239 0.047685418 -0.75563037 -0.25465611 -0.6034674 0.0062280181
-0.057689704 0.14717257 0.034389891 -0.83619982 -0.33200502 -0.43651178 0.027516434
-0.064757124 0.12391863 0.018678512 -0.77167147 -0.45983508 -0.43940294 0.015568241
-0.059339121 0.13795076 0.03122567 -0.82502484 -0.29802176 -0.48012191 0.016481433
-0.022249758 0.10832362 0.032385517 0.2189856 -0.77467448 -0.59323251 0.011681316
-0.022029364 0.10762755 0.0062504653 0.25612333 -0.60931838 -0.75042123 0.0029822814
-0.031512138 0.12750351 0.031767856 0.089117572 -0.69171697 -0.71664894 0.007182973
-0.017178135 0.12271126 0.017530568 0.21852617 -0.88355941 -0.41420898 0.0038163862
-0.047215328 0.12006827 0.01357725 -0.0098979417 -0.83467448 -0.55065459 0.0082057444
-0.0055961497 0.097531945 0.041505847 0.23928009 -0.82670623 -0.50921685 0.0083035426
-0.04520205 0.1128087 0.037825156 0.033354413 -0.81189781 -0.58284593 0.0085460329
-0.059023373 0.12354431 0.034941755 -0.6821875 -0.30016235 -0.6667254 0.010716889
-0.042960264 0.10136883 0.034348961 -0.055118669 -0.64711553 -0.7603969 0.0040871259
-0.066726238 0.10087789 0.033903915 -0.21478797 -0.3984302 -0.89169478 0.035277426
-0.041234925 0.13062604 0.02868093 -0.28772661 -0.71870273 -0.63299263 0.036527757
-0.052332092 0.12491234 0.033490017 -0.72714043 -0.35215625 -0.58928162 0.024528533
-0.045853119 0.13368782 0.018968223 -0.28699586 -0.60819656 -0.74008805 0.046943106
-0.049503077 0.12178487 0.017080896 -0.63170999 -0.40763944 -0.65937287 0.035298273
-0.044912156 0.14143354 0.010853901 0.42597631 0.069760799 0.90204078 0.013660887
-0.061670925 0.16685277 0.040724326 -0.79792613 -0.50649345 -0.3267695 0.056300875
-0.041142322 0.13117783 0.0016117748 -0.64400738 -0.55972904 -0.52149576 0.027122065
-0.049285624 0.15019816 0.01673221 -0.82856554 -0.35174406 -0.4356091 0.011342637
-0.032896645 0.16450565 0.0039881868 -0.53052694 -0.1433237 -0.83546358 0.019582529
-0.05541987 0.1492651 0.01409135 -0.43282154 -0.42147359 -0.79688495 0.028641256
-0.026506886 0.12873732 0.0089003174 0.21852911 -0.8835566 -0.41421345 0.0038136169
-0.014240224 0.12307379 0.00093332492 -0.084133193 -0.80922121 -0.58144879 0.018533347
-0.05497013 0.14273258 0.025095783 -0.36518443 -0.63293225 -0.68266904 0.027313044
-0.055903666 0.16150428 0.033626419 -0.50408536 -0.44549564 -0.73988628 0.039870977
-0.063679442 0.14065693 0.051225863 -0.015496265 -0.7730304 -0.63417977 0.01780135
-0.066279165 0.1448037 0.028464235 -0.71306747 -0.24283816 -0.65769631 0.0063271122
-0.086396813 0.14293754 0.021319192 0.47669819 -0.71192718 -0.51567286 0.013532816
-0.059454933 0.15540034 0.01820679 0.78517169 -0.52193189 -0.33330569 0.024797359
-0.095625237 0.12963066 0.028827285 0.84258002 -0.39418849 -0.36697993 0.014366952
-0.079292133 0.16138038 0.032026082 0.5251044 -0.78348589 -0.33228782 0.025516272
-0.076657303 0.14184973 0.042013615 0.89614761 -0.32351896 -0.30373508 0.034004856
-0.087823436 0.13576986 0.047507752 0.95984846 -0.22861007 -0.16256762 0.007631606
-0.055669777 0.13259155 0.053456768 -0.70580089 -0.12846732 -0.69666433 0.016850151
-0.053555533 0.11712836 0.029495962 -0.49193445 -0.058857333 -0.86864048 0.040929805
-0.10120758 0.13745785 0.037960909 0.93956327 -0.17970741 -0.2914207 0.014043191
-0.081086658 0.13127102 0.031146187 0.86413795 0.33086988 -0.37919742 0.048940618
-0.096814089 0.13174801 0.019982746 0.98552257 -0.12056172 -0.11920663 0.0043064994
-0.10056487 0.11098817 0.022865027 0.98427206 0.16453789 0.064309932 0.029838379
-0.073628664 0.14146361 0.026896099 0.89614254 -0.32352197 -0.30374691 0.034012903
-0.10054246 0.13718675 0.0074045463 0.95805603 -0.20726846 -0.1979098 0.0057622446
-0.1058037 0.12980907 0.040576823 0.98243999 0.18117557 0.044576686 0.032072492
0.022014393 0.11328369 0.045338765 -0.50217587 -0.45149371 -0.73754513 0.0049769632
0.022072215 0.10205119 0.039273195 -0.66844445 -0.23813689 -0.70460826 0.0084011387
0.032577086 0.092244916 0.051637556 -0.52449149 -0.31101868 -0.79257548 0.0042440598
0.041214291 0.10175379 0.02619151 -0.68985844 -0.097785927 -0.71730965 0.0065412661
0.022461483 0.094887644 0.020694226 -0.5732041 -0.084137343 -0.81508148 0.0041391035
0.024913706 0.085913971 0.052884925 -0.6749531 0.049827036 -0.73617643 0.0027250601
0.034384221 0.082078628 0.018604098 -0.61608005 0.092481732 -0.78223556 0.0023465508
0.006768784 0.079142891 0.061048649 -0.37729472 -0.35353231 -0.85595769 0.0052667796
-0.0035150973 0.085487589 0.056481656 -0.18586323 -0.50761348 -0.8412987 0.012646539
0.017493937 0.1101765 0.037540045 -0.24998525 -0.50104308 -0.82853079 0.0050569442
0.024708889 0.10668311 0.049924694 -0.12115002 -0.45767561 -0.88082665 0.005781922
0.017330542 0.085441068 0.05378262 -0.37112617 -0.34566584 -0.8618471 0.0054108021
0.010004085 0.10586911 0.062544502 -0.11644173 -0.59730524 -0.7935161 0.0055130087
-0.0087728994 0.084656984 0.05418035 -0.024833232 -0.57589561 -0.81714606 0.012671551
-0.0054664076 0.10392101 0.035689618 0.13523138 -0.59376568 -0.7931928 0.014543219
-0.0026432041 0.091975838 0.047732618 0.026278881 -0.39993814 -0.91616535 0.002705948
-0.0043839877 0.1117661 0.038066588 0.1192934 -0.39521939 -0.91080779 0.0015582
0.0065068211 0.093482226 0.025558665 -0.0069597415 -0.58737713 -0.80928338 0.015852297
-0.020474175 0.10144949 0.035953224 0.11381002 -0.60800987 -0.78572983 0.015490185
0.011758538 0.078391373 0.064430282 -0.40546137 -0.17009516 -0.89814734 0.0030322804
0.022373769 0.10060675 0.048935641 -0.29560381 -0.25577238 -0.92043406 0.0076185586
0.02967307 0.075531542 0.046078205 -0.44164523 0.016793245 -0.89703256 0.0038809509
0.007863869 0.070699513 0.062633023 -0.28453448 0.014439251 -0.95855707 0.0030511376
0.025752451 0.096088141 0.049396124 -0.48251823 -0.14953297 -0.86302727 0.0021532676
0.0052191392 0.091553658 0.069018006 -0.54274106 0.042393196 -0.83882946 0.0043320926
0.014095979 0.079371497 0.040752009 -0.085129447 -0.29672778 -0.95116013 0.021261316
-0.014106094 0.087660983 0.052636996 0.19515742 -0.19225521 -0.96174401 0.012458436
0.0045854924 0.083403997 0.0808153 -0.055512048 -0.015349915 -0.99833995 0.007448623
-0.028368255 0.079149671 0.073572353 0.2755622 0.10759915 -0.95524234 0.020187844
0.023612835 0.047273807 0.041825265 -0.64387792 0.13396259 -0.75330955 0.0024370786
0.01591859 0.063790925 0.062156171 -0.59509897 0.15709978 -0.78814769 0.001263492
0.02787713 0.053810161 0.042181954 -0.56684518 0.27811375 -0.77546078 0.0032190143
0.01999096 0.034838341 0.045480579 -0.60811114 0.31426507 -0.72899812 0.0063965297
0.016984208 0.068491027 0.048938222 -0.46439239 0.15635081 -0.87171906 0.0033340643
-0.013269638 0.08274591 0.050795387 -0.29502016 0.15021715 -0.943609 0.0037481887
-0.002036836 0.057207029 0.039058767 -0.44073677 0.28497621 -0.85119891 0.0053655636
0.015014192 0.036847346 0.038413785 -0.29052511 0.28976738 -0.91193748 0.0064742533
0.01213251 0.072100982 0.028411822 -0.51491582 0.17084281 -0.84004426 0.0017491818
0.019708605 0.054991581 0.043288969 -0.51175618 0.28225034 -0.81144345 0.0029353874
0.0026274379 0.063716054 0.03628245 -0.38840196 0.3981083 -0.83105576 0.0085874954
-0.028985305 0.069995388 0.057798479 -0.020316985 0.17890212 -0.98365712 0.004140513
-0.015767526 0.059958737 0.032657757 0.32926905 0.21563224 -0.91928482 0.01968986
-0.012875329 0.052024316 0.039506454 -0.0052823606 0.27603641 -0.96113271 0.0068042353
-0.0022191331 0.071983971 0.053541634 0.32840732 0.26231068 -0.90738177 0.016386257
-0.018673625 0.057483733 0.058146812 0.24083789 0.01177044 -0.97049403 0.059673704
-0.0025508613 0.06097988 0.040890452 -0.19795869 0.38478413 -0.90152842 0.0084427586
0.018803997 0.041043714 0.032526691 -0.48477679 0.32723331 -0.8111164 0.012247019
0.018749347 0.055204272 0.046031766 -0.21786378 0.42153558 -0.88025171 0.010199225
0.032855108 0.035270877 0.059545688 -0.50713331 0.31902084 -0.80065072 0.014214325
0.0020922404 0.044718225 0.051773094 -0.24138522 0.43614018 -0.86689961 0.0099169947
0.0012554841 0.045756113 0.048415944 -0.038185336 0.39012834 -0.91996837 0.010735004
-0.021379918 0.051629536 0.060071815 0.0094410116 0.079695806 -0.99677449 0.047492072
-0.011142264 0.03581636 0.051691882 -0.20715107 -0.25438344 -0.94465739 0.025480686
-0.0031345715 0.040918406 0.054476451 -0.14519539 0.31627905 -0.93748909 0.018671323
-0.012264936 0.043801937 0.035977382 0.0094404668 0.079705797 -0.99677372 0.047494438
8.98242e-05 0.039517775 0.059638478 -0.14519632 0.31627876 -0.93748909 0.018673668
-0.0086459816 0.033533875 0.039816219 -0.18494596 0.016573779 -0.98260897 0.025298525
0.051160026 0.073624372 0.0043515973 -0.92041755 -0.28093216 -0.27186149 0.0066030738
0.040935684 0.11005443 0.012409318 -0.69015884 -0.40015957 -0.60295367 0.0044354568
0.018625494 0.11510003 0.056612365 -0.52822232 -0.47807541 -0.70173007 0.0067754826
0.03905784 0.094977304 0.048707571 -0.7790432 -0.26857656 -0.56653172 0.0041775848
0.03052319 0.086773239 0.045768779 -0.65142018 -0.3041302 -0.69509459 0.0061181071
0.037473846 0.10555135 0.031297162 -0.8241421 -0.39830247 -0.40267223 0.0091458764
0.028033558 0.10945885 0.032256052 -0.74014568 -0.52058494 -0.42564726 0.011109083
0.049176838 0.10280499 0.036247559 -0.88692129 -0.31068045 -0.34183076 0.0038380553
0.047749344 0.088876158 0.012853265 -0.95414311 -0.11537059 -0.27622551 0.0076777046
0.036729623 0.058013346 0.037737012 -0.51798862 -0.50113165 -0.69322062 0.06503357
0.029757068 0.07304389 0.029206948 -0.69614828 -0.084045157 -0.71296144 0.044977665
0.048204098 0.070555925 0.042279571 -0.81002659 -0.061518699 -0.58315742 0.0046865996
0.040037312 0.076292671 0.045369606 -0.77414429 0.054391067 -0.63066804 0.0025961238
0.036317956 0.088346228 0.033490092 -0.89833516 -0.10155091 -0.42741233 0.0056578321
0.03540504 0.076438114 0.028330501 -0.8671717 -0.077556886 -0.49193311 0.013927608
0.072359219 0.095834941 0.018289423 -0.95895141 -0.22659501 -0.1704898 0.0043888544
0.056440651 0.093426645 0.011758746 -0.94115782 -0.30727333 -0.14073028 0.0059855459
0.031457689 0.12057429 0.0028162934 -0.88866729 -0.41421592 -0.19671176 0.0021756196
0.027007796 0.10047181 0.02917476 -0.92437547 -0.33019742 -0.19104898 0.0041756001
0.038629156 0.0834646 0.0095152613 -0.96485788 -0.19427004 -0.17694214 0.0036036982
0.075351186 0.064326152 0.021189 -0.56342161 -0.42417717 -0.70896399 0.053529784
0.05359789 0.075412191 0.011323592 -0.5870927 -0.5095039 -0.62906915 0.043783061
0.053503152 0.10309969 -0.0067264112 -0.97563714 -0.16882955 -0.14010231 0.0032495963
0.0091979969 0.11145567 0.029640589 -0.25648993 -0.49896565 -0.82779592 0.0047740079
0.026996965 0.10755773 0.029294092 -0.14828649 -0.48850796 -0.85986692 0.004848307
0.060223233 0.049543019 0.026297042 -0.35205206 -0.072589144 -0.93316144 0.031428069
0.065670237 0.071029663 0.024581922 -0.52020526 -0.44320381 -0.730039 0.049573082
0.050338034 0.081204914 0.030409036 -0.2865766 -0.49326757 -0.82131654 0.032226685
0.068711057 0.056621056 0.0058797281 -0.70871705 0.068796292 -0.7021305 0.029180726
0.049268547 0.061736841 0.022462856 -0.57538748 0.071726911 -0.81472969 0.043009475
0.030199466 0.087357253 0.026441731 -0.7568534 0.066869825 -0.65015489 0.0050594709
0.038915016 0.061230544 0.050242044 -0.668118 0.14268312 -0.73024642 0.0029397116
0.040379249 0.071804501 0.020221272 -0.49821573 0.01963944 -0.86683065 0.042904783
0.026163612 0.047012579 0.04303566 -0.526851 0.27108574 -0.80556852 0.0028973371
0.026278341 0.0589137 0.031912118 -0.78373605 -0.10993145 -0.61128795 0.036790907
0.041749474 0.059855849 0.03236343 -0.53708231 -0.022425119 -0.84323174 0.045972284
0.032699775 0.045305837 0.025608717 -0.3528904 0.34862784 -0.86828965 0.037123516
0.063289575 0.066478111 0.021602744 -0.70719039 0.31820387 -0.63136995 0.016325338
0.045400318 0.036962468 0.024192154 -0.52652866 0.51785374 -0.67423666 0.0098816361
0.052417826 0.040916838 0.042424992 -0.36187053 0.47896025 -0.7997793 0.015337758
0.0091381483 0.037057519 0.03424627 -0.57399821 0.45164311 -0.68304068 0.016997997
0.013626102 0.040053952 0.041996222 -0.68097848 0.28570601 -0.67427027 0.0093491748
0.019752795 0.046509612 0.0068568066 -0.37806544 0.51105171 -0.77194083 0.022927471
0.035471343 0.049129039 0.036876988 -0.53197962 0.50747716 -0.67783815 0.019725965
0.034757446 0.043796171 0.015246269 -0.39942452 0.69131386 -0.60211724 0.007815362
0.027319986 0.032798868 0.032849561 -0.53198594 0.50746638 -0.67784125 0.019722477
0.054151177 0.05153697 0.013693968 -0.56344873 -0.42420113 -0.70892805 0.053521059
0.056399833 0.083994888 0.0078416038 -0.51798266 -0.50117189 -0.693196 0.065022051
0.053451881 0.055141352 0.024727615 -0.88730741 0.07214395 -0.45550054 0.044594601
0.04352732 0.056048516 0.016462259 -0.70719075 0.31820732 -0.6313678 0.016323969
0.049075767 0.029439677 0.030458199 -0.58164734 0.58193195 -0.56836736 0.014211843
0.035272699 0.024421375 0.038016848 -0.60811114 0.31426507 -0.72899812 0.0063965297
0.035128206 0.043678727 0.044628642 -0.59490627 0.43003449 -0.67908525 0.018004857
-0.023352988 0.080532797 0.045969013 0.34927082 -0.48287472 -0.80302054 0.018088751
-0.017427478 0.1032328 0.051996388 0.18082748 -0.437738 -0.88073081 0.0027749946
-0.053769197 0.10121381 0.039516471 0.11291887 -0.47436607 -0.87305558 0.0067759664
-0.03742836 0.099966235 0.043986108 0.2705847 -0.41650814 -0.86793143 0.023760239
-0.046719365 0.11841504 0.043243233 0.17280744 -0.2860494 -0.94250375 0.014363435
-0.025594991 0.1086604 0.040564381 0.00073640002 -0.45958629 -0.88813281 0.0045937961
-0.046422772 0.101317 0.042232461 -0.03633894 -0.34159034 -0.93914616 0.00271941
-0.063728712 0.092384219 0.02831801 -0.0044234376 -0.22387859 -0.97460699 0.0070257671
-0.063803382 0.087966613 0.037841752 -0.04023103 -0.22149211 -0.97433192 0.0042004804
-0.033974469 0.09818349 0.070884243 0.50618094 -0.16235481 -0.84700757 0.034249049
-0.027964542 0.088538259 0.059829682 0.68004489 -0.089362115 -0.72770423 0.030443884
-0.025443811 0.074811541 0.069777876 0.53606218 0.17085041 -0.82670885 0.018211767
-0.024884889 0.083928525 0.052275911 0.68004316 -0.089353099 -0.72770685 0.030443544
-0.044554241 0.093902096 0.044884231 0.2828007 -0.035433222 -0.95852399 0.027427558
-0.018133104 0.068592496 0.037691452 0.69481319 0.2732133 -0.66527379 0.01750415
-0.036082581 0.070816062 0.046131194 0.29757643 0.22898653 -0.92682981 0.031569399
-0.041218013 0.10736297 0.023929944 0.106451 0.0045626885 -0.99430746 0.028152194
-0.056642029 0.093524545 0.04137693 -0.038542189 0.067814387 -0.99695325 0.006826716
-0.053231936 0.093915254 0.032889042 -0.0079677086 0.18697172 -0.98233294 0.0034264468
-0.068223834 0.077159539 0.031386808 0.038096964 0.28818578 -0.95681643 0.0087176375
-0.051695522 0.099491172 0.053646859 -0.029402535 -0.25662446 -0.9660638 0.036180034
-0.080424331 0.098818816 0.034835532 0.084962435 -0.63697439 0.76618856 0.040219717
-0.061883837 0.11417302 0.027181737 0.16092302 -0.22269997 -0.96151358 0.0058681369
-0.063850537 0.088558786 0.053271998 0.4036282 -0.0080862371 -0.91488731 0.038544029
-0.074908897 0.097969398 0.055191923 -0.31796536 -0.75363255 0.57527047 0.0096438928
-0.064982921 0.078552082 0.051236857 0.17248975 0.045638345 -0.98395348 0.0073326589
-0.074853122 0.09393511 0.035535388 0.42582259 0.091916025 -0.90012586 0.01168427
-0.068308301 0.074538492 0.03553962 0.19923167 0.37411079 -0.90573061 0.0082584694
-0.067401364 0.076977514 0.052703373 0.41895124 0.42133331 -0.80433702 0.0084476769
-0.025822006 0.071351759 0.053875707 0.65199536 0.23585072 -0.72060847 0.018073827
-0.013431625 0.07582435 0.069543794 0.55176026 0.18901981 -0.8123005 0.01541355
-0.018248744 0.079430483 0.045911379 0.69483125 0.28809536 -0.65894651 0.018995659
-0.039116282 0.0665631 0.040407307 0.05322047 0.19476742 -0.97940451 0.032201033
-0.022940028 0.06322068 0.045407526 0.69635779 0.11462907 -0.70848149 0.021707475
-0.030495446 0.047743745 0.03683541 -0.061588861 0.12001347 -0.99085999 0.010013676
-0.056192212 0.078465521 0.027199414 0.10316385 0.13051817 -0.98606396 0.020321144
-0.058098026 0.078059852 0.047340147 0.18421111 0.32899684 -0.92618972 0.015567646
-0.023772033 0.045948461 0.03973208 0.16084772 0.15765952 -0.97430557 0.030772509
-0.0020717457 0.046192173 0.052697405 0.1091383 -0.44714984 -0.88777572 0.033779215
-0.014810321 0.029157434 0.046754435 0.29156253 -0.59619606 -0.74802518 0.039049324
-0.0084737428 0.05231623 0.071107082 -0.075991563 -0.25113225 -0.96496522 0.025803825
-0.039822325 0.029420968 0.052729033 0.30103204 -0.48792616 -0.81933367 0.032826744
-0.032336764 0.048642728 0.030391505 0.29242998 -0.44415969 -0.84688061 0.077966951
-0.04312136 0.048891295 0.035369039 0.36673963 -0.60464549 -0.70704025 0.0094668921
-0.040788103 0.037887279 0.034401484 0.39517462 -0.55422795 -0.73257649 0.01399758
-0.050574496 0.058007292 0.038056407 0.10855728 -0.51931661 -0.84765881 0.029278623
-0.062153272 0.040691134 0.028529041 0.082651727 -0.48762557 -0.86913168 0.025466334
-0.043709699 0.04956203 0.054890975 0.15547548 -0.66415334 -0.73125088 0.02137457
-0.048789382 0.053252459 0.030858446 0.14657496 -0.59871596 -0.78743577 0.031854171
-0.071438134 0.069007099 0.038168132 0.35994217 -0.78289491 -0.50746149 0.050245311
-0.061553959 0.036455542 0.038387857 0.27816954 -0.61602265 -0.73697889 0.070127271
-0.032499239 0.10525312 0.033394583 0.21418424 -0.47806239 -0.85181069 0.0033514106
-0.022619296 0.12137645 0.038307019 0.10414454 -0.5102818 -0.85367811 0.00511677
-0.037704092 0.12011984 0.046713218 -0.038321562 -0.47359723 -0.87990749 0.0054788273
-0.060042102 0.1202063 0.034519497 -0.077510841 -0.42872471 -0.90010399 0.0054551302
-0.082725964 0.099998772 0.037768558 -0.19225384 -0.14292401 -0.97088164 0.072213292
-0.08801268 0.093093909 0.032342065 -0.12120762 -0.54344511 0.83064801 0.11271713
-0.080852464 0.084985808 0.040910106 0.57305831 -0.0035732505 -0.81950676 0.033460639
-0.069973774 0.08543735 0.038770705 0.7911132 0.17815721 -0.58514953 0.055837024
-0.079400845 0.10495454 0.037148651 0.70376015 -0.11795598 -0.7005769 0.0059455447
-0.091907963 0.098669671 0.013769372 0.84119576 0.021250656 -0.54031295 0.033550162
-0.092508763 0.086744435 0.0092575299 0.87406546 -0.16717812 -0.45613703 0.0070871506
-0.093854822 0.094472878 0.010626063 0.84734458 -0.091733746 -0.52306026 0.0057304609
-0.077920489 0.12605926 0.040340848 0.90336299 -0.11470471 -0.41325316 0.0070019392
-0.057865307 0.081435725 0.032212596 0.56156623 0.1044868 -0.82080805 0.0091117797
-0.078430176 0.061475687 0.040281706 0.26235282 0.46205065 -0.8471601 0.0077266204
-0.090312019 0.062823683 0.036986932 0.53422672 0.41966563 -0.73381364 0.0055706957
-0.067683227 0.079236686 0.034201201 0.67109746 0.6318242 -0.38784823 0.0044638016
-0.072074667 0.083088465 0.037244566 0.73211843 0.15737711 -0.6627481 0.010024117
-0.093157783 0.081984207 0.019252699 0.69276303 0.45652202 -0.55827153 0.0087372195
-0.084176533 0.10555333 0.027504891 0.83963245 0.18885627 -0.50926477 0.0076140678
-0.11291248 0.10447058 0.029951429 0.8909108 0.13929515 -0.43229026 0.012848299
-0.0686941 0.088252351 0.037511569 0.78641486 0.46373811 -0.40804234 0.0062469114
-0.069382772 0.11554555 0.018657669 0.82173651 0.22532307 -0.52342957 0.049227774
-0.091984227 0.10822784 0.027439892 0.86681664 0.0054754531 -0.498597 0.033453744
-0.091952741 0.095171869 0.020403339 0.90338933 -0.11469468 -0.41319811 0.0069744457
-0.091195494 0.0882276 0.021305738 0.89179856 0.414648 -0.18100342 0.0088002766
-0.10897386 0.081413038 0.016781038 0.97110236 0.13235515 -0.19860105 0.021748984
-0.082984701 0.081324473 0.020739526 0.84889227 0.48539269 -0.20922697 0.0035174063
-0.058600448 0.087986976 0.018751021 0.82750958 0.52928513 -0.18731017 0.0049080662
-0.035911992 0.047101695 0.033868149 0.43814281 0.22409004 -0.87052548 0.040726949
-0.050758563 0.069213748 0.028543383 0.042627886 0.20684171 -0.97744536 0.036731411
-0.047731146 0.059727468 0.037798032 0.46868646 -0.18745917 -0.86324513 0.057940684
-0.057368003 0.061566316 0.043136377 -0.011200796 -0.10971908 -0.99389958 0.049078658
-0.035582263 0.074320197 0.03059306 0.27066356 0.20376664 -0.94086152 0.014609119
-0.037861064 0.086490817 0.044127285 0.45068917 0.51399606 -0.72985429 0.025667811
-0.060266301 0.062348191 0.028217293 0.1486076 -0.041601405 -0.98802084 0.041527726
-0.055791292 0.059705816 0.051579759 0.6727168 0.11576855 -0.73078698 0.042428575
-0.053833965 0.072461277 0.036549591 0.59951371 0.53357315 -0.59655923 0.043033648
-0.049487073 0.077984422 0.035721138 0.83461094 0.44335803 -0.32689163 0.075001374
-0.058736458 0.042410914 0.047564108 0.062156912 -0.34150508 -0.9378224 0.049006518
-0.046974599 0.030443583 0.02879535 0.18698144 -0.34636065 -0.9192782 0.045123689
-0.045693193 0.067603193 0.032597795 0.24271692 -0.67756188 -0.69426107 0.051133763
-0.05296142 0.074943982 0.025531085 0.3495166 -0.61714137 -0.70496428 0.042339273
-0.068554319 0.044073172 0.00081158895 0.73811674 -0.5837099 0.33832872 0.10117272
-0.054572318 0.061764117 0.014725331 0.55382234 -0.62194115 0.55359733 0.074788764
-0.051197529 0.055277426 0.006824641 0.71343958 -0.5019455 0.48893222 0.076894961
-0.049431182 0.039878123 0.0082205152 0.58453882 -0.60774499 0.53755039 0.087734967
-0.059050914 0.06595967 0.02143948 -0.29371658 -0.70654899 0.64383167 0.0069489204
-0.074474722 0.070024922 0.041304916 0.51250762 0.6654157 -0.54273182 0.0082743121
-0.072765574 0.059739634 0.031444799 -0.36954576 -0.80908924 0.45695794 0.0015373469
-0.075919338 0.065983176 0.022139749 -0.53203923 -0.76704764 0.35856968 0.0046437387
-0.073471099 0.037798423 0.032130454 -0.36452094 -0.86008775 0.3568942 0.0045510111
-0.069330879 0.069653034 0.0100285 -0.45134526 -0.75177139 0.48075694 0.0056222733
-0.079523794 0.059873622 0.033504199 0.72853959 0.59948909 -0.33142552 0.0062416438
-0.062813915 0.028820043 0.021796606 0.53365648 -0.68499517 -0.49597609 0.040642425
-0.060581259 0.051414281 0.025140941 0.53365141 -0.68499339 -0.49598423 0.04063797
-0.065024219 0.050745137 0.021378886 0.58283192 -0.78510177 -0.20957632 0.040994368
-0.07282941 0.060808573 0.01677591 -0.52006978 -0.77749521 0.35359377 0.0054407413
-0.051646519 0.053568386 0.02346459 -0.34448564 -0.88180333 0.32210648 0.0041377745
-0.088838995 0.066511765 0.021322561 -0.49395499 -0.764835 0.41356477 0.0061281542
-0.068537667 0.049703337 -0.0079808785 0.58451724 -0.60774255 0.53757656 0.087737001
-0.10354453 0.062331859 0.028295793 0.73846012 0.65186685 -0.17247072 0.0068075666
-0.055585966 0.043166347 0.0060436516 0.46874011 -0.60717469 -0.64157742 0.005866745
-0.086715646 0.048062708 0.018440127 0.46878213 -0.60720211 -0.64152074 0.0058589075
-0.048497975 0.060176991 0.029402833 0.46878806 -0.60721052 -0.64150858 0.0058575436
-0.070650302 0.052940521 0.001993645 0.46882352 -0.60723507 -0.64145941 0.0058502122
-0.068742253 0.040784594 0.0087604783 0.5694347 -0.66778845 -0.47937754 0.016703486
-0.058465339 0.042849734 -0.0061746165 0.47598499 -0.67020458 -0.56944197 0.0028901543
-0.072651476 0.038933475 0.0035737292 0.47598499 -0.67020458 -0.56944197 0.0028901543
-0.010420447 0.19121878 -0.013013024 -0.69538468 -0.23898028 -0.67773783 0.0056980988
-0.034742087 0.16727762 -0.030720484 -0.5923745 -0.24637972 -0.76706547 0.01349183
-0.00091016386 0.16214444 -0.0028688367 -0.43222958 -0.51712793 -0.73875326 0.00369721
-0.019334842 0.15007228 -0.011503591 -0.39357325 -0.48935169 -0.77822554 0.0063953851
-0.007583526 0.17761417 -0.040678214 -0.52248943 -0.46689072 -0.71345484 0.006487147
-0.028607814 0.15219538 -0.0073797069 -0.45074272 -0.5343765 -0.71503335 0.0045233937
-0.017328497 0.2003815 -0.043477528 -0.69996727 -0.29157621 -0.65194255 0.0068006245
-0.0055780471 0.17879979 -0.030066336 -0.64671504 -0.3023999 -0.70022422 0.011895906
-0.00059248228 0.16682208 -0.011163435 -0.59230733 -0.37863559 -0.71120119 0.0092242574
-0.029412488 0.19783086 -0.0072511369 0.67986989 0.016672963 0.73314315 0.0095390202
-0.030166239 0.18695521 -0.019081652 0.67986888 0.016679294 0.73314404 0.0095392438
-0.015503174 0.17898591 -0.0045863157 0.67986959 0.016676841 0.73314333 0.0095393462
-0.027819943 0.18869781 -0.0027842168 0.63255119 -0.029571004 0.7739538 0.017594624
-0.011467731 0.18128937 -0.00031020027 0.70246118 0.038495716 0.71068025 0.0076522529
-0.036411669 0.18821859 -0.0078095254 0.66117793 0.027738377 0.7497161 0.0099074291
-0.031233305 0.16418473 -0.025662556 0.60842365 0.096019991 0.78778219 0.021824442
-0.056147799 0.15938644 -0.010215959 -0.29537752 -0.14131819 -0.94487101 0.06837032
-0.010961862 0.15543245 -0.02224602 -0.38129494 -0.48171195 -0.78902966 0.006038486
-0.035702109 0.17163712 -0.0062773507 -0.62478781 -0.1951244 -0.75602031 0.019099949
-0.027549757 0.1644804 -0.0021093329 -0.37730029 -0.50651139 -0.77530044 0.0046436773
-0.044283532 0.14833345 -0.0061888215 -0.46141326 -0.12661076 -0.87810451 0.027269369
-0.032291688 0.16385923 -0.020460766 -0.43273494 -0.47357085 -0.76711875 0.0067598876
-0.028111966 0.16952865 -0.015828263 0.60842371 0.096020497 0.78778213 0.021823406
-0.05244334 0.17767262 0.0049649472 -0.30108872 -0.091772109 -0.94916987 0.064206578
-0.040379245 0.16594766 -0.012069889 -0.16683987 -0.35772914 -0.91880053 0.042867519
-0.030032426 0.17345913 -0.00047127457 -0.50185984 -0.16620237 -0.84883064 0.034010869
-0.071386993 0.16033809 0.0016770223 0.2064072 -0.93305117 -0.29463804 0.015543612
-0.076547243 0.14448042 -0.006888743 0.2064072 -0.93305117 -0.29463804 0.015543612
-0.074089445 0.16698408 -0.016625462 0.19103831 -0.86545706 -0.46312907 0.031841654
-0.062038947 0.1750689 -0.020520531 0.19091524 -0.86551589 -0.46306965 0.031785745
-0.064124294 0.17458665 -0.0043623075 0.18612653 -0.91787857 -0.350508 0.025151037
-0.084418446 0.16378343 -0.021098992 0.23880717 -0.85915995 -0.45256522 0.034051653
-0.077558041 0.15681092 -0.02409002 0.22228232 -0.8792305 -0.42136011 0.03356503
-0.078169033 0.15934432 -0.02702399 0.18266542 -0.91310471 -0.36451766 0.025214965
-0.049546707 0.17338203 -0.032486275 -0.025542269 -0.91648245 -0.39925876 0.019174108
-0.1114412 0.15984397 -0.033541076 -0.025476603 -0.91650516 -0.39921072 0.019112799
-0.064710334 0.19016504 -0.017591363 0.15715888 -0.88196146 -0.44434786 0.02887252
-0.062831469 0.17952061 -0.031489823 0.1767879 -0.88837665 -0.42371312 0.027746443
-0.047881201 0.17130807 -0.047044553 0.054610178 -0.91556865 -0.39843675 0.014395946
-0.084307298 0.17344423 -0.027159708 0.098481193 -0.88386661 -0.45725399 0.010965914
-0.06807562 0.15418752 -0.03941115 0.21544355 -0.87500358 -0.43353528 0.026826311
-0.076634757 0.16393174 -0.031673986 0.2222922 -0.87915635 -0.42150956 0.033694346
-0.084229536 0.17878079 -0.033417188 0.18613139 -0.85368556 -0.4863908 0.012735247
-0.042854134 0.15810254 0.0048215049 -0.39771387 -0.18987525 -0.89764744 0.019185906
-0.0712277 0.16775844 -0.04600475 -0.15292998 -0.88486844 -0.44002312 0.012427152
-0.080262899 0.16911785 -0.051875152 -0.1860113 -0.85304689 -0.48755604 0.015654244
-0.058126412 0.19056094 -0.05294678 -0.18646584 -0.85284752 -0.48773098 0.015722066
-0.061544552 0.18089151 -0.052372042 -0.18632874 -0.85291398 -0.48766747 0.015678046
-0.066563107 0.17907338 -0.065167248 -0.18646584 -0.85284752 -0.48773098 0.015722066
-0.079496428 0.16873577 -0.043627419 -0.18629308 -0.85293317 -0.48764735 0.01566753
