# .PCD v0.7 - Point Cloud Data file format
VERSION 0.7
FIELDS x y z normal_x normal_y normal_z curvature
SIZE 4 4 4 4 4 4 4
TYPE F F F F F F F
COUNT 1 1 1 1 1 1 1
WIDTH 397
HEIGHT 1
VIEWPOINT 0 0 0 1 0 0 0
POINTS 397
DATA ascii
0.019932436 0.11952128 0.03056347 -0.16884723 -0.45159745 -0.87609947 0.0030943851
-0.014343674 0.11215231 0.018531563 -0.011541721 -0.46529692 -0.88507944 0.0056861709
-0.024410589 0.069849357 0.048815239 0.14614862 -0.496488 -0.85565197 0.0056441575
0.018572811 0.13449156 0.028473273 -0.52052444 -0.53684396 -0.66396749 0.0069778459
0.0096251555 0.088877812 0.038545489 -0.50764346 -0.74296999 -0.4362267 0.012873111
-0.0041209012 0.13947609 0.050078075 -0.74675208 -0.59207439 -0.30300051 0.00816618
-0.0052857827 0.15065615 0.048275795 -0.59785169 -0.67759848 -0.42829144 0.015595004
0.013909348 0.12542453 0.02446723 -0.59158164 -0.74482262 -0.30865923 0.0096910615
0.077459946 0.084364831 0.042331107 -0.79553264 -0.56393856 -0.22158764 0.0077297003
0.0030693673 0.15798382 0.005502196 -0.31086302 -0.74870217 -0.58549905 0.010855215
-0.0018159924 0.10571493 0.033705939 -0.15485749 -0.70128393 -0.69585913 0.0058102743
-0.0055342112 0.14046901 0.0082161967 -0.32298067 -0.56194073 -0.76151562 0.0089428844
-0.023372618 0.11535348 0.056024633 -0.17445859 -0.523031 -0.83426785 0.0039783465
0.014461704 0.10605089 0.072737351 -0.40127173 -0.79735625 -0.45078158 0.011859259
0.0030491292 0.11808667 0.038056508 -0.14846934 -0.86061466 -0.48713383 0.01193497
0.041422375 0.090473115 -0.0069057848 -0.50815374 -0.73633546 -0.44675478 0.013027777
0.0042859223 0.11382312 0.054799441 0.021843739 -0.73292792 -0.6799556 0.0062952945
-0.004132587 0.095744759 0.05402701 0.21974316 -0.7375769 -0.63850862 0.0058935038
-0.028498827 0.11584517 0.021775328 0.0033577818 -0.55838519 -0.82957506 0.0055112438
-0.024207842 0.11422007 0.022656729 0.18408856 -0.58010685 -0.79346544 0.0045971852
-0.02568402 0.097231269 0.0019159652 0.060926694 -0.89214551 -0.44762078 0.0071681938
0.021954615 0.13525493 0.018311728 0.25322157 -0.84287763 -0.474801 0.004851752
0.021175331 0.13997306 0.023299551 -0.30896688 -0.90670973 -0.28708377 0.0081693754
0.01211182 0.11467142 0.02898239 -0.18857701 -0.8954969 -0.40314254 0.0061773811
0.0037053106 0.13538484 0.017058292 -0.030506011 -0.93418866 -0.35547286 0.0078295255
7.962063e-05 0.13906989 0.036309469 0.20082667 -0.90866685 -0.36605063 0.0041274121
0.0072708149 0.11537221 0.01421532 0.17915623 -0.52085388 -0.83463424 0.0074276463
-0.089915864 0.1312561 0.081568114 -0.13361748 -0.37986907 -0.91533923 0.053038858
-0.056319375 0.1547374 0.015247792 -0.52148068 -0.439255 -0.73151416 0.026551403
-0.073803522 0.13801573 0.035177663 -0.10976201 -0.60856271 -0.78587765 0.030716548
-0.066811204 0.12375221 0.038327698 -0.64690953 -0.27790511 -0.71012449 0.0061066193
-0.11589992 0.12045773 0.072811238 -0.23028101 -0.50395799 -0.8324644 0.024193831
-0.08516816 0.15448374 0.044544019 0.20600085 -0.40636119 -0.89018774 0.042999495
-0.063920736 0.12447181 0.052560471 0.39670554 -0.63132799 -0.66637051 0.020071341
-0.10737427 0.14049213 0.03577213 0.49222195 -0.44529268 -0.74795187 0.027716169
-0.1418754 0.14661583 0.082043096 0.71588868 -0.35794571 -0.59948176 0.0061506582
-0.068000957 0.12966456 0.051474076 -0.44702551 0.026569208 -0.89412653 0.049122065
-0.12895353 0.08559674 0.036300108 -0.15109582 -0.14565089 -0.97772992 0.012987013
-0.058592837 0.14190075 0.041147374 0.49363372 -0.27387455 0.82542014 0.063380361
-0.047327459 0.12585735 0.040553305 0.089953512 -0.40322584 0.91066861 0.043889515
-0.072991267 0.1051835 0.048997067 0.7461043 0.10399755 0.65765715 0.025209237
-0.048262518 0.19012144 0.076087989 -0.43632671 -0.33852753 -0.83367741 0.025434997
-0.10520831 0.14091073 0.069809645 0.73735356 -0.31851915 0.59569734 0.030531738
-0.085997954 0.086325958 0.068898611 0.16830848 -0.65331757 0.7381385 0.032480057
-0.078356922 0.12260527 0.047188148 0.38682958 -0.01568961 -0.92201769 0.017833892
-0.062289886 0.13051885 0.018904138 0.15518065 0.31381333 -0.93671775 0.021380307
-0.091437116 0.15148035 0.020655721 0.66413164 -0.060075819 -0.74519807 0.016970368
-0.066026472 0.12269011 0.041911989 0.75927979 -0.1181355 -0.63995177 0.015361789
-0.10914427 0.14619094 0.068382584 0.4467158 0.38261694 -0.80873305 0.015345791
-0.086924106 0.1218689 0.047976471 0.67966002 0.12636337 -0.72256106 0.032478429
-0.067818098 0.14127019 0.038239893 -0.33762839 -0.71236515 -0.61525851 0.0429281
-0.07073652 0.12917812 0.035857379 -0.83237761 -0.38691509 -0.39679241 0.023426346
-0.024853844 0.16160861 -0.0065592541 -0.29537779 -0.14131801 -0.94487101 0.06837023
-0.05303346 0.15726687 -0.017146502 -0.29537809 -0.14131688 -0.94487107 0.068370357
-0.042633425 0.14277577 -0.00091372698 -0.29537809 -0.14131688 -0.94487107 0.068370357
-0.043681104 0.15847133 0.0037886882 -0.43437883 -0.10727591 -0.89431924 0.027991556
-0.025399283 0.13472821 0.045001719 -0.66571194 -0.53041917 -0.52486485 0.10940588
-0.019669339 0.16758834 0.01944297 -0.088684477 -0.32659593 -0.9409942 0.04067177
-0.038694605 0.16730121 0.0091178194 -0.19820534 -0.51164192 -0.83602464 0.018989481
-0.070050649 0.16967484 0.032018233 -0.46768439 -0.15497798 -0.8702029 0.021614425
-0.060638957 0.14724305 -0.0086296322 -0.36611214 -0.40681309 -0.83693784 0.031957328
-0.10912157 0.16053458 -0.0049024411 -0.34849492 -0.73624218 -0.58008516 0.044005789
-0.060346119 0.1673934 0.055563629 0.037774783 -0.84826654 -0.52822059 0.019414406
-0.061963089 0.16531783 0.037915818 -0.34841642 -0.73644722 -0.57987207 0.043948863
-0.089371808 0.14881213 -0.0048851036 0.084375083 -0.85251749 -0.51584369 0.023248179
-0.06790863 0.16653712 0.018585445 0.36376482 -0.81080192 -0.4585579 0.0071089235
-0.073423162 0.17954783 0.026009498 0.41848749 -0.81323707 -0.40436816 0.011017915
-0.08653374 0.14262496 0.040636525 0.79803133 -0.46404663 -0.38445634 0.034933198
-0.091989256 0.19484422 0.029279374 -0.66573882 -0.53037977 -0.52487051 0.10940783
-0.087582432 0.15875065 0.0029459726 -0.36614218 -0.40679416 -0.83693397 0.031956732
-0.091676123 0.16103414 0.017034911 0.8514818 -0.36151975 -0.37984514 0.047997151
-0.091409832 0.18474732 0.019489966 -0.71406651 -0.25552902 -0.65177757 0.026650187
-0.01644244 0.16073927 -0.011409715 -0.75563037 -0.25465611 -0.6034674 0.0062280181
-0.032821581 0.15783311 0.023678733 -0.83619982 -0.33200502 -0.43651178 0.027516434
-0.040723301 0.13607371 0.025974505 -0.77167147 -0.45983508 -0.43940294 0.015568241
-0.057767622 0.14836872 0.055853084 -0.82502484 -0.29802176 -0.48012191 0.016481433
-0.010619206 0.14384669 0.054310128 0.2189856 -0.77467448 -0.59323251 0.011681316
-0.041754879 0.10110969 0.019492604 0.25612333 -0.60931838 -0.75042123 0.0029822814
-0.014158059 0.14650954 0.037622057 0.089117572 -0.69171697 -0.71664894 0.007182973
-0.011449516 0.14647464 0.023442112 0.21852617 -0.88355941 -0.41420898 0.0038163862
-0.013715386 0.1859173 0.041052133 -0.0098979417 -0.83467448 -0.55065459 0.0082057444
0.02203683 0.14289731 0.014471584 0.23928009 -0.82670623 -0.50921685 0.0083035426
-0.046113946 0.11897084 0.012841005 0.033354413 -0.81189781 -0.58284593 0.0085460329
-0.083094299 0.14404795 0.03526365 -0.6821875 -0.30016235 -0.6667254 0.010716889
-0.030299831 0.11637386 0.046909861 -0.055118669 -0.64711553 -0.7603969 0.0040871259
-0.021378787 0.12290061 0.025447544 -0.21478797 -0.3984302 -0.89169478 0.035277426
-0.045905732 0.1423437 0.051295649 -0.28772661 -0.71870273 -0.63299263 0.036527757
-0.03638595 0.13362996 0.042853419 -0.72714043 -0.35215625 -0.58928162 0.024528533
-0.072169654 0.11921033 0.014179626 -0.28699586 -0.60819656 -0.74008805 0.046943106
-0.044851292 0.14107776 0.012167826 -0.63170999 -0.40763944 -0.65937287 0.035298273
-0.0052387137 0.14796093 -0.0088882511 0.42597631 0.069760799 0.90204078 0.013660887
-0.063199438 0.16403723 0.054449141 -0.79792613 -0.50649345 -0.3267695 0.056300875
-0.049143631 0.14538416 -0.0021611415 -0.64400738 -0.55972904 -0.52149576 0.027122065
-0.011730328 0.12963831 0.008525081 -0.82856554 -0.35174406 -0.4356091 0.011342637
-0.075622678 0.12755564 0.0048276894 -0.53052694 -0.1433237 -0.83546358 0.019582529
-0.071104236 0.15188098 0.024591368 -0.43282154 -0.42147359 -0.79688495 0.028641256
0.004254885 0.1112399 0.036434736 0.21852911 -0.8835566 -0.41421345 0.0038136169
-0.0071398225 0.090123534 0.018665988 -0.084133193 -0.80922121 -0.58144879 0.018533347
-0.037824374 0.11830882 0.0082906587 -0.36518443 -0.63293225 -0.68266904 0.027313044
-0.039529145 0.15090953 0.044845831 -0.50408536 -0.44549564 -0.73988628 0.039870977
-0.089850351 0.16591705 0.061890043 -0.015496265 -0.7730304 -0.63417977 0.01780135
-0.078847565 0.15443118 0.043281142 -0.71306747 -0.24283816 -0.65769631 0.0063271122
-0.061761688 0.15309425 -0.0010371655 0.47669819 -0.71192718 -0.51567286 0.013532816
-0.082774073 0.13828133 0.041375868 0.78517169 -0.52193189 -0.33330569 0.024797359
-0.10151033 0.14643836 0.041935127 0.84258002 -0.39418849 -0.36697993 0.014366952
-0.079592891 0.13426286 -0.0017940793 0.5251044 -0.78348589 -0.33228782 0.025516272
-0.082952917 0.14086895 0.035576873 0.89614761 -0.32351896 -0.30373508 0.034004856
-0.093004704 0.13192946 0.0003515128 0.95984846 -0.22861007 -0.16256762 0.007631606
-0.063818283 0.1202169 0.008117469 -0.70580089 -0.12846732 -0.69666433 0.016850151
-0.078662373 0.089149289 0.0044895485 -0.49193445 -0.058857333 -0.86864048 0.040929805
-0.093701884 0.15326971 0.055628218 0.93956327 -0.17970741 -0.2914207 0.014043191
-0.10283661 0.099299543 0.067813478 0.86413795 0.33086988 -0.37919742 0.048940618
-0.08055599 0.13232051 0.021331944 0.98552257 -0.12056172 -0.11920663 0.0043064994
-0.10290778 0.11736463 0.0062967222 0.98427206 0.16453789 0.064309932 0.029838379
-0.1153778 0.13009785 0.03278045 0.89614254 -0.32352197 -0.30374691 0.034012903
-0.077458881 0.142924 0.006348717 0.95805603 -0.20726846 -0.1979098 0.0057622446
-0.099074967 0.12587847 0.014964255 0.98243999 0.18117557 0.044576686 0.032072492
0.024512066 0.092237368 0.05100951 -0.50217587 -0.45149371 -0.73754513 0.0049769632
0.041218739 0.09127745 0.049941912 -0.66844445 -0.23813689 -0.70460826 0.0084011387
0.009501474 0.11708257 0.030519057 -0.52449149 -0.31101868 -0.79257548 0.0042440598
0.033041045 0.12426555 0.055435151 -0.68985844 -0.097785927 -0.71730965 0.0065412661
0.013891733 0.11419293 0.047766041 -0.5732041 -0.084137343 -0.81508148 0.0041391035
0.016210126 0.059692197 0.043743581 -0.6749531 0.049827036 -0.73617643 0.0027250601
0.042663846 0.053240798 0.075292654 -0.61608005 0.092481732 -0.78223556 0.0023465508
0.016489279 0.10548338 0.047185622 -0.37729472 -0.35353231 -0.85595769 0.0052667796
-0.003445264 0.068735965 0.03897329 -0.18586323 -0.50761348 -0.8412987 0.012646539
0.0034619356 0.088575393 0.04304117 -0.24998525 -0.50104308 -0.82853079 0.0050569442
0.0073184771 0.082391895 0.021733316 -0.12115002 -0.45767561 -0.88082665 0.005781922
0.013376854 0.12273852 0.039474811 -0.37112617 -0.34566584 -0.8618471 0.0054108021
0.0027426272 0.098976016 0.093081877 -0.11644173 -0.59730524 -0.7935161 0.0055130087
0.029140379 0.06564948 0.026938871 -0.024833232 -0.57589561 -0.81714606 0.012671551
-0.016095772 0.095568068 0.072690979 0.13523138 -0.59376568 -0.7931928 0.014543219
-0.023349637 0.14525567 0.042638857 0.026278881 -0.39993814 -0.91616535 0.002705948
-0.030682415 0.12113357 0.082379162 0.1192934 -0.39521939 -0.91080779 0.0015582
-0.022928396 0.11144279 0.01419821 -0.0069597415 -0.58737713 -0.80928338 0.015852297
-0.066796586 0.11258798 0.053133968 0.11381002 -0.60800987 -0.78572983 0.015490185
0.0097676348 0.13156903 0.045185585 -0.40546137 -0.17009516 -0.89814734 0.0030322804
0.039822258 0.05604469 0.049703989 -0.29560381 -0.25577238 -0.92043406 0.0076185586
0.054413509 0.049188688 0.052341394 -0.44164523 0.016793245 -0.89703256 0.0038809509
-0.0059572374 0.089695595 0.079230815 -0.28453448 0.014439251 -0.95855707 0.0030511376
0.029018359 0.10021239 0.056250934 -0.48251823 -0.14953297 -0.86302727 0.0021532676
0.04829913 0.067470081 0.061126981 -0.54274106 0.042393196 -0.83882946 0.0043320926
0.012035683 0.079607636 0.046644069 -0.085129447 -0.29672778 -0.95116013 0.021261316
-0.010839379 0.079883248 0.068894573 0.19515742 -0.19225521 -0.96174401 0.012458436
0.019183923 0.072965823 0.066129245 -0.055512048 -0.015349915 -0.99833995 0.007448623
-0.030629452 0.13824475 0.049046632 0.2755622 0.10759915 -0.95524234 0.020187844
0.044443101 0.096304402 0.043614838 -0.64387792 0.13396259 -0.75330955 0.0024370786
0.022214968 0.070091255 0.060660243 -0.59509897 0.15709978 -0.78814769 0.001263492
0.022000112 0.096699014 0.057434052 -0.56684518 0.27811375 -0.77546078 0.0032190143
0.013574594 0.08101318 0.018094623 -0.60811114 0.31426507 -0.72899812 0.0063965297
0.0051076496 0.073472157 0.030996995 -0.46439239 0.15635081 -0.87171906 0.0033340643
0.018469822 0.060455125 0.053792413 -0.29502016 0.15021715 -0.943609 0.0037481887
-0.009786481 0.056349773 0.05492609 -0.44073677 0.28497621 -0.85119891 0.0053655636
-0.007661866 0.077650666 0.0387761 -0.29052511 0.28976738 -0.91193748 0.0064742533
0.054016016 0.056870054 0.037880719 -0.51491582 0.17084281 -0.84004426 0.0017491818
0.0054143043 0.076636463 0.067684077 -0.51175618 0.28225034 -0.81144345 0.0029353874
0.0010749213 0.0043820143 0.078642443 -0.38840196 0.3981083 -0.83105576 0.0085874954
0.0044364394 0.076432377 0.021198865 -0.020316985 0.17890212 -0.98365712 0.004140513
-0.021535743 0.10613649 0.025603255 0.32926905 0.21563224 -0.91928482 0.01968986
-0.031478196 0.065065093 0.02405387 -0.0052823606 0.27603641 -0.96113271 0.0068042353
-0.0031502238 0.045874119 0.10443448 0.32840732 0.26231068 -0.90738177 0.016386257
0.00016309321 0.053404093 0.0099171661 0.24083789 0.01177044 -0.97049403 0.059673704
0.029996108 0.028403515 0.043695409 -0.19795869 0.38478413 -0.90152842 0.0084427586
0.027572416 0.061146542 0.046875257 -0.48477679 0.32723331 -0.8111164 0.012247019
0.044540472 0.048578795 0.038075812 -0.21786378 0.42153558 -0.88025171 0.010199225
-0.0087333117 0.063398033 0.022726005 -0.50713331 0.31902084 -0.80065072 0.014214325
0.011963299 0.023079997 0.044177268 -0.24138522 0.43614018 -0.86689961 0.0099169947
0.0099353809 0.067718729 0.038583111 -0.038185336 0.39012834 -0.91996837 0.010735004
-4.7695823e-05 0.033427335 0.061338417 0.0094410116 0.079695806 -0.99677449 0.047492072
-0.0089781582 0.039111454 0.046460811 -0.20715107 -0.25438344 -0.94465739 0.025480686
-0.030957539 0.048798196 0.068122819 -0.14519539 0.31627905 -0.93748909 0.018671323
-0.03598566 0.077791706 0.048821852 0.0094404668 0.079705797 -0.99677372 0.047494438
-0.021943683 0.0066756271 0.053016126 -0.14519632 0.31627876 -0.93748909 0.018673668
-0.0038492139 0.050862558 0.048454989 -0.18494596 0.016573779 -0.98260897 0.025298525
0.037700366 0.094572134 0.043691538 -0.92041755 -0.28093216 -0.27186149 0.0066030738
0.037911732 0.13875926 -0.010383897 -0.69015884 -0.40015957 -0.60295367 0.0044354568
0.099705562 0.10339997 0.044880763 -0.52822232 -0.47807541 -0.70173007 0.0067754826
0.037091289 0.12014083 0.037141789 -0.7790432 -0.26857656 -0.56653172 0.0041775848
0.061154563 0.093468621 0.053200845 -0.65142018 -0.3041302 -0.69509459 0.0061181071
0.04107831 0.12010117 0.021537937 -0.8241421 -0.39830247 -0.40267223 0.0091458764
0.052039932 0.080311686 0.023985252 -0.74014568 -0.52058494 -0.42564726 0.011109083
0.043191236 0.087372698 0.029983141 -0.88692129 -0.31068045 -0.34183076 0.0038380553
0.050573781 0.10863553 0.042318083 -0.95414311 -0.11537059 -0.27622551 0.0076777046
0.081894115 0.094766155 0.024360161 -0.51798862 -0.50113165 -0.69322062 0.06503357
0.047740962 0.052764259 0.020906493 -0.69614828 -0.084045157 -0.71296144 0.044977665
0.042856399 0.074711762 0.04444842 -0.81002659 -0.061518699 -0.58315742 0.0046865996
0.04234758 0.017647248 0.055203259 -0.77414429 0.054391067 -0.63066804 0.0025961238
0.021099716 0.092874296 0.039094552 -0.89833516 -0.10155091 -0.42741233 0.0056578321
0.042475447 0.085716747 0.0092906896 -0.8671717 -0.077556886 -0.49193311 0.013927608
0.045741327 0.088666275 -0.029315744 -0.95895141 -0.22659501 -0.1704898 0.0043888544
0.039412711 0.090555988 0.038427446 -0.94115782 -0.30727333 -0.14073028 0.0059855459
0.05210777 0.090996906 0.0078873355 -0.88866729 -0.41421592 -0.19671176 0.0021756196
0.016062828 0.10537185 0.013215391 -0.92437547 -0.33019742 -0.19104898 0.0041756001
0.046649586 0.0760132 0.03166651 -0.96485788 -0.19427004 -0.17694214 0.0036036982
0.058570914 0.061678052 0.0065715816 -0.56342161 -0.42417717 -0.70896399 0.053529784
0.07276094 0.056626625 0.038753558 -0.5870927 -0.5095039 -0.62906915 0.043783061
0.064023547 0.04886315 -0.021776512 -0.97563714 -0.16882955 -0.14010231 0.0032495963
0.045541838 0.090572134 0.024438616 -0.25648993 -0.49896565 -0.82779592 0.0047740079
-0.0054521188 0.082662001 0.070481017 -0.14828649 -0.48850796 -0.85986692 0.004848307
0.054678112 0.058111455 0.050635688 -0.35205206 -0.072589144 -0.93316144 0.031428069
0.067437455 0.092935398 0.052351221 -0.52020526 -0.44320381 -0.730039 0.049573082
0.057171695 0.085521728 0.010778846 -0.2865766 -0.49326757 -0.82131654 0.032226685
0.076305695 0.067449845 0.039694101 -0.70871705 0.068796292 -0.7021305 0.029180726
0.052436531 0.063750848 0.025029365 -0.57538748 0.071726911 -0.81472969 0.043009475
0.046580508 0.081432186 0.063644968 -0.7568534 0.066869825 -0.65015489 0.0050594709
0.035823036 0.04855825 0.040862724 -0.668118 0.14268312 -0.73024642 0.0029397116
0.031519461 0.063390315 -0.0032653175 -0.49821573 0.01963944 -0.86683065 0.042904783
-0.028407091 0.051611952 0.070907101 -0.526851 0.27108574 -0.80556852 0.0028973371
0.064144865 0.047769062 0.024502803 -0.78373605 -0.10993145 -0.61128795 0.036790907
0.070689261 0.060643855 0.005081635 -0.53708231 -0.022425119 -0.84323174 0.045972284
0.035703465 0.034976833 0.018802127 -0.3528904 0.34862784 -0.86828965 0.037123516
0.042477101 0.023891976 0.012440084 -0.70719039 0.31820387 -0.63136995 0.016325338
0.043123253 0.11342986 0.0076313261 -0.52652866 0.51785374 -0.67423666 0.0098816361
0.046045952 0.046240397 0.063381657 -0.36187053 0.47896025 -0.7997793 0.015337758
0.017411344 0.06382741 0.03137511 -0.57399821 0.45164311 -0.68304068 0.016997997
0.056830056 0.029444419 0.051618405 -0.68097848 0.28570601 -0.67427027 0.0093491748
0.0170439 0.048635647 0.064642012 -0.37806544 0.51105171 -0.77194083 0.022927471
0.010875519 0.086855337 0.027435511 -0.53197962 0.50747716 -0.67783815 0.019725965
0.027836628 0.070849121 0.026604636 -0.39942452 0.69131386 -0.60211724 0.007815362
0.028132884 0.072143249 0.039364189 -0.53198594 0.50746638 -0.67784125 0.019722477
0.095840819 0.077254631 0.0024341466 -0.56344873 -0.42420113 -0.70892805 0.053521059
0.053672418 0.047745563 0.013676966 -0.51798266 -0.50117189 -0.693196 0.065022051
0.082132541 0.072804198 -0.0047094226 -0.88730741 0.07214395 -0.45550054 0.044594601
0.042349502 0.064130045 0.031021465 -0.70719075 0.31820732 -0.6313678 0.016323969
0.034034628 0.021303194 0.012565391 -0.58164734 0.58193195 -0.56836736 0.014211843
0.0081857229 0.053503249 0.083165124 -0.60811114 0.31426507 -0.72899812 0.0063965297
0.038101647 0.060986251 0.044872791 -0.59490627 0.43003449 -0.67908525 0.018004857
-0.028435403 0.08804021 0.04113362 0.34927082 -0.48287472 -0.80302054 0.018088751
-0.026057743 0.089971736 0.041248787 0.18082748 -0.437738 -0.88073081 0.0027749946
-0.050934859 0.08422593 0.038883645 0.11291887 -0.47436607 -0.87305558 0.0067759664
0.011419453 0.11416588 0.043053839 0.2705847 -0.41650814 -0.86793143 0.023760239
-0.018813629 0.11611298 0.081221238 0.17280744 -0.2860494 -0.94250375 0.014363435
-0.036126535 0.10475574 0.03527429 0.00073640002 -0.45958629 -0.88813281 0.0045937961
-0.02404614 0.095145494 0.028471842 -0.03633894 -0.34159034 -0.93914616 0.00271941
-0.035157409 0.054052386 0.085910678 -0.0044234376 -0.22387859 -0.97460699 0.0070257671
-0.053382598 0.10535516 0.058387212 -0.04023103 -0.22149211 -0.97433192 0.0042004804
-0.00053886138 0.11097831 0.056849945 0.50618094 -0.16235481 -0.84700757 0.034249049
-0.060944691 0.075319842 0.059449345 0.68004489 -0.089362115 -0.72770423 0.030443884
-0.019978128 0.073829167 0.090214439 0.53606218 0.17085041 -0.82670885 0.018211767
-0.063325837 0.096579865 0.013008945 0.68004316 -0.089353099 -0.72770685 0.030443544
-0.011747871 0.13226093 0.057206742 0.2828007 -0.035433222 -0.95852399 0.027427558
-0.04089104 0.038899839 0.030262329 0.69481319 0.2732133 -0.66527379 0.01750415
-0.037978631 0.076246515 0.031218529 0.29757643 0.22898653 -0.92682981 0.031569399
-0.07433705 0.083778784 0.0619586 0.106451 0.0045626885 -0.99430746 0.028152194
-0.03755169 0.086625703 0.0145043 -0.038542189 0.067814387 -0.99695325 0.006826716
-0.036096632 0.069639847 0.03877262 -0.0079677086 0.18697172 -0.98233294 0.0034264468
-0.042591736 0.055920344 0.028814547 0.038096964 0.28818578 -0.95681643 0.0087176375
-0.066524677 0.11000583 0.028775232 -0.029402535 -0.25662446 -0.9660638 0.036180034
-0.072413668 0.10898137 0.0090646967 0.084962435 -0.63697439 0.76618856 0.040219717
-0.065436572 0.079874344 0.043035261 0.16092302 -0.22269997 -0.96151358 0.0058681369
-0.059188139 0.055997979 0.072799541 0.4036282 -0.0080862371 -0.91488731 0.038544029
-0.074615926 0.11634842 0.071264893 -0.31796536 -0.75363255 0.57527047 0.0096438928
-0.070244551 0.07033851 0.022321006 0.17248975 0.045638345 -0.98395348 0.0073326589
-0.072865352 0.084734909 0.0479136 0.42582259 0.091916025 -0.90012586 0.01168427
-0.059878338 0.072498843 0.075164698 0.19923167 0.37411079 -0.90573061 0.0082584694
-0.12101224 0.064282209 0.014733516 0.41895124 0.42133331 -0.80433702 0.0084476769
-0.025169181 0.053482808 0.028460134 0.65199536 0.23585072 -0.72060847 0.018073827
-0.016807271 0.06110394 0.049468685 0.55176026 0.18901981 -0.8123005 0.01541355
0.0072403736 0.068167649 0.056815673 0.69483125 0.28809536 -0.65894651 0.018995659
-0.01659438 0.09902598 0.066935085 0.05322047 0.19476742 -0.97940451 0.032201033
-0.035410993 0.069413632 0.10286783 0.69635779 0.11462907 -0.70848149 0.021707475
-0.058314011 0.050611943 0.041244537 -0.061588861 0.12001347 -0.99085999 0.010013676
-0.034749951 0.071559384 0.0150057 0.10316385 0.13051817 -0.98606396 0.020321144
-0.040427741 0.035959445 0.036194056 0.18421111 0.32899684 -0.92618972 0.015567646
-0.054278504 0.077655405 0.063815564 0.16084772 0.15765952 -0.97430557 0.030772509
-0.026093949 0.035325233 0.021580677 0.1091383 -0.44714984 -0.88777572 0.033779215
-0.029838674 0.05265969 0.029491203 0.29156253 -0.59619606 -0.74802518 0.039049324
-0.0060244575 0.025643773 0.028460855 -0.075991563 -0.25113225 -0.96496522 0.025803825
-0.047625467 0.0053138807 0.047713384 0.30103204 -0.48792616 -0.81933367 0.032826744
-0.020042 0.060035646 0.046006646 0.29242998 -0.44415969 -0.84688061 0.077966951
-0.011765815 0.060427804 0.035045959 0.36673963 -0.60464549 -0.70704025 0.0094668921
-0.033058204 0.024553381 0.055334833 0.39517462 -0.55422795 -0.73257649 0.01399758
-0.025720777 0.037120987 0.05340663 0.10855728 -0.51931661 -0.84765881 0.029278623
-0.081677616 0.032418422 0.047465108 0.082651727 -0.48762557 -0.86913168 0.025466334
-0.037040722 0.0408272 0.040333916 0.15547548 -0.66415334 -0.73125088 0.02137457
-0.033212747 0.013110925 0.046630267 0.14657496 -0.59871596 -0.78743577 0.031854171
-0.068378828 0.015348803 0.040384132 0.35994217 -0.78289491 -0.50746149 0.050245311
-0.071946628 0.021074997 0.05009079 0.27816954 -0.61602265 -0.73697889 0.070127271
0.0093004815 0.12441021 0.062384851 0.21418424 -0.47806239 -0.85181069 0.0033514106
-0.056744624 0.10895539 0.051656593 0.10414454 -0.5102818 -0.85367811 0.00511677
-0.033687711 0.11699256 0.029058132 -0.038321562 -0.47359723 -0.87990749 0.0054788273
-0.089426771 0.1048355 0.041731566 -0.077510841 -0.42872471 -0.90010399 0.0054551302
-0.035195529 0.087931037 0.041644458 -0.19225384 -0.14292401 -0.97088164 0.072213292
-0.064611793 0.11134735 0.020725096 -0.12120762 -0.54344511 0.83064801 0.11271713
-0.060504712 0.10018137 0.05649893 0.57305831 -0.0035732505 -0.81950676 0.033460639
-0.054156438 0.085076198 0.033886891 0.7911132 0.17815721 -0.58514953 0.055837024
-0.091599897 0.091935784 0.046662539 0.70376015 -0.11795598 -0.7005769 0.0059455447
-0.066393599 0.11185923 0.06187284 0.84119576 0.021250656 -0.54031295 0.033550162
-0.12492058 0.12157274 0.023139656 0.87406546 -0.16717812 -0.45613703 0.0070871506
-0.067591332 0.094182916 0.041010302 0.84734458 -0.091733746 -0.52306026 0.0057304609
-0.087138638 0.10191451 0.051207948 0.90336299 -0.11470471 -0.41325316 0.0070019392
-0.10036018 0.0780982 0.076255143 0.56156623 0.1044868 -0.82080805 0.0091117797
-0.10121867 0.064448528 0.079126671 0.26235282 0.46205065 -0.8471601 0.0077266204
-0.052860752 0.11463203 0.03672355 0.53422672 0.41966563 -0.73381364 0.0055706957
-0.083549954 0.10503085 0.021473367 0.67109746 0.6318242 -0.38784823 0.0044638016
-0.08176814 0.10525361 0.040809508 0.73211843 0.15737711 -0.6627481 0.010024117
-0.086127006 0.050760858 0.048585482 0.69276303 0.45652202 -0.55827153 0.0087372195
-0.09498781 0.054358792 0.014743586 0.83963245 0.18885627 -0.50926477 0.0076140678
-0.084350154 0.086243063 0.0026343297 0.8909108 0.13929515 -0.43229026 0.012848299
-0.072151117 0.087075636 -0.0047439411 0.78641486 0.46373811 -0.40804234 0.0062469114
-0.071357042 0.12690365 -0.00057597645 0.82173651 0.22532307 -0.52342957 0.049227774
-0.11924069 0.12075926 0.0033184234 0.86681664 0.0054754531 -0.498597 0.033453744
-0.10327459 0.078319758 -0.0048283637 0.90338933 -0.11469468 -0.41319811 0.0069744457
-0.087487847 0.082530558 -0.018633125 0.89179856 0.414648 -0.18100342 0.0088002766
-0.11049749 0.081443749 0.022952396 0.97110236 0.13235515 -0.19860105 0.021748984
-0.084226608 0.10533442 -0.0033838209 0.84889227 0.48539269 -0.20922697 0.0035174063
-0.09065602 0.11407629 -0.017321052 0.82750958 0.52928513 -0.18731017 0.0049080662
-0.019168034 0.048173361 0.041863345 0.43814281 0.22409004 -0.87052548 0.040726949
-0.023333261 0.051865663 0.03506979 0.042627886 0.20684171 -0.97744536 0.036731411
-0.021167817 0.069053464 0.026130017 0.46868646 -0.18745917 -0.86324513 0.057940684
-0.030758508 0.044647217 0.02473731 -0.011200796 -0.10971908 -0.99389958 0.049078658
-0.033437293 0.051424004 0.051738907 0.27066356 0.20376664 -0.94086152 0.014609119
-0.075715341 0.071295112 0.018936925 0.45068917 0.51399606 -0.72985429 0.025667811
-0.025127586 0.071832813 0.0051582493 0.1486076 -0.041601405 -0.98802084 0.041527726
-0.03970851 0.066689685 0.059147708 0.6727168 0.11576855 -0.73078698 0.042428575
-0.061664231 0.047211882 0.033060908 0.59951371 0.53357315 -0.59655923 0.043033648
-0.057193715 0.041597717 -0.0029493403 0.83461094 0.44335803 -0.32689163 0.075001374
-0.052362356 0.028670084 0.035961248 0.062156912 -0.34150508 -0.9378224 0.049006518
-0.040203709 0.030424161 -0.00083200261 0.18698144 -0.34636065 -0.9192782 0.045123689
-0.052761424 0.060577285 0.032536697 0.24271692 -0.67756188 -0.69426107 0.051133763
-0.057683647 0.058522165 0.010581078 0.3495166 -0.61714137 -0.70496428 0.042339273
-0.037346244 0.034410968 -0.021762615 0.73811674 -0.5837099 0.33832872 0.10117272
-0.050372243 0.027227808 -0.0054165367 0.55382234 -0.62194115 0.55359733 0.074788764
-0.038736597 0.036564864 0.021094825 0.71343958 -0.5019455 0.48893222 0.076894961
-0.071177624 0.052091442 0.02197588 0.58453882 -0.60774499 0.53755039 0.087734967
-0.065802202 0.065813042 0.055136565 -0.29371658 -0.70654899 0.64383167 0.0069489204
-0.081734285 0.075888552 -0.0058025904 0.51250762 0.6654157 -0.54273182 0.0082743121
-0.035252415 0.10212806 0.031991825 -0.36954576 -0.80908924 0.45695794 0.0015373469
-0.054362722 0.085263707 0.019872848 -0.53203923 -0.76704764 0.35856968 0.0046437387
-0.067572758 0.060365144 0.041988358 -0.36452094 -0.86008775 0.3568942 0.0045510111
-0.026865225 0.066151418 -0.02486111 -0.45134526 -0.75177139 0.48075694 0.0056222733
-0.058027942 0.062038075 0.058657631 0.72853959 0.59948909 -0.33142552 0.0062416438
-0.043062013 0.081086814 0.081178002 0.53365648 -0.68499517 -0.49597609 0.040642425
-0.060620777 0.034582444 0.052134357 0.53365141 -0.68499339 -0.49598423 0.04063797
-0.071597375 0.048201382 0.031162776 0.58283192 -0.78510177 -0.20957632 0.040994368
-0.061286967 0.095303386 0.023591137 -0.52006978 -0.77749521 0.35359377 0.0054407413
-0.080782741 0.034233123 0.045751072 -0.34448564 -0.88180333 0.32210648 0.0041377745
-0.032495916 0.055760261 0.01757546 -0.49395499 -0.764835 0.41356477 0.0061281542
-0.057083793 0.064275205 0.021206925 0.58451724 -0.60774255 0.53757656 0.087737001
-0.070421651 0.11333077 0.036383778 0.73846012 0.65186685 -0.17247072 0.0068075666
-0.066720873 0.066892847 -0.0060846452 0.46874011 -0.60717469 -0.64157742 0.005866745
-0.062761575 0.065407738 0.046124421 0.46878213 -0.60720211 -0.64152074 0.0058589075
-0.059507549 0.039607894 0.012414096 0.46878806 -0.60721052 -0.64150858 0.0058575436
-0.098772079 0.029951975 0.038771324 0.46882352 -0.60723507 -0.64145941 0.0058502122
-0.066521011 0.067926548 -0.0040381206 0.5694347 -0.66778845 -0.47937754 0.016703486
-0.10470756 0.049542338 0.02367527 0.47598499 -0.67020458 -0.56944197 0.0028901543
-0.067480825 0.018949462 0.009358502 0.47598499 -0.67020458 -0.56944197 0.0028901543
0.0050855651 0.17711926 -0.027085466 -0.69538468 -0.23898028 -0.67773783 0.0056980988
-0.044579208 0.20492427 -0.021828905 -0.5923745 -0.24637972 -0.76706547 0.01349183
0.0078420378 0.15943731 -0.0033891308 -0.43222958 -0.51712793 -0.73875326 0.00369721
-0.021520639 0.15530315 0.0015661223 -0.39357325 -0.48935169 -0.77822554 0.0063953851
-0.0013629906 0.14372364 0.005544574 -0.52248943 -0.46689072 -0.71345484 0.006487147
-0.015117681 0.14720914 -0.057087224 -0.45074272 -0.5343765 -0.71503335 0.0045233937
-0.016407227 0.19176368 -0.0078851338 -0.69996727 -0.29157621 -0.65194255 0.0068006245
-0.00037469156 0.16297306 -0.034536935 -0.64671504 -0.3023999 -0.70022422 0.011895906
0.012922294 0.20375311 -0.019154992 -0.59230733 -0.37863559 -0.71120119 0.0092242574
-0.0092922095 0.19252343 -0.003809751 0.67986989 0.016672963 0.73314315 0.0095390202
-0.050919108 0.18329731 0.037002429 0.67986888 0.016679294 0.73314404 0.0095392438
-0.051775314 0.18858981 -0.026778499 0.67986959 0.016676841 0.73314333 0.0095393462
-0.074305788 0.15616105 0.0036312034 0.63255119 -0.029571004 0.7739538 0.017594624
-0.022931071 0.2175321 -0.0094873095 0.70246118 0.038495716 0.71068025 0.0076522529
0.0076062847 0.18648021 -0.025762402 0.66117793 0.027738377 0.7497161 0.0099074291
-0.015781362 0.22025695 -0.035803691 0.60842365 0.096019991 0.78778219 0.021824442
-0.050288245 0.17456973 -0.025115835 -0.29537752 -0.14131819 -0.94487101 0.06837032
-0.0050840732 0.13781425 -0.0072637256 -0.38129494 -0.48171195 -0.78902966 0.006038486
-0.035036445 0.19664729 0.0088413572 -0.62478781 -0.1951244 -0.75602031 0.019099949
-0.021286231 0.17415358 -0.0017455874 -0.37730029 -0.50651139 -0.77530044 0.0046436773
-0.031243589 0.17282413 0.0032725101 -0.46141326 -0.12661076 -0.87810451 0.027269369
-0.01974012 0.16245911 -0.015193691 -0.43273494 -0.47357085 -0.76711875 0.0067598876
-0.032522976 0.17063616 -0.001476136 0.60842371 0.096020497 0.78778213 0.021823406
-0.046421137 0.17272495 0.013955676 -0.30108872 -0.091772109 -0.94916987 0.064206578
-0.020584699 0.14980593 -0.02049857 -0.16683987 -0.35772914 -0.91880053 0.042867519
-0.042438362 0.18435404 0.00024490702 -0.50185984 -0.16620237 -0.84883064 0.034010869
-0.032620247 0.14843629 0.023324914 0.2064072 -0.93305117 -0.29463804 0.015543612
-0.054444931 0.17597437 0.0092637576 0.2064072 -0.93305117 -0.29463804 0.015543612
-0.070860542 0.15502423 -0.016455241 0.19103831 -0.86545706 -0.46312907 0.031841654
-0.080378287 0.14230946 -0.037041962 0.19091524 -0.86551589 -0.46306965 0.031785745
-0.037890408 0.17223063 0.0014531258 0.18612653 -0.91787857 -0.350508 0.025151037
-0.084572636 0.15365569 -0.011017647 0.23880717 -0.85915995 -0.45256522 0.034051653
-0.096011057 0.16507445 -0.040251464 0.22228232 -0.8792305 -0.42136011 0.03356503
-0.070075586 0.18849602 0.01833209 0.18266542 -0.91310471 -0.36451766 0.025214965
-0.058437221 0.20845419 0.0049311593 -0.025542269 -0.91648245 -0.39925876 0.019174108
-0.048528206 0.18137982 -0.038307469 -0.025476603 -0.91650516 -0.39921072 0.019112799
-0.07019113 0.20719904 -0.027823508 0.15715888 -0.88196146 -0.44434786 0.02887252
-0.061755743 0.17738788 -0.015150497 0.1767879 -0.88837665 -0.42371312 0.027746443
-0.045646228 0.17534952 -0.057059839 0.054610178 -0.91556865 -0.39843675 0.014395946
-0.076483354 0.16774945 -0.049235873 0.098481193 -0.88386661 -0.45725399 0.010965914
-0.10257958 0.17876595 0.039643589 0.21544355 -0.87500358 -0.43353528 0.026826311
-0.094222955 0.14180422 -0.034922827 0.2222922 -0.87915635 -0.42150956 0.033694346
-0.076399021 0.19162266 -0.020024942 0.18613139 -0.85368556 -0.4863908 0.012735247
-0.022738351 0.12619142 0.037489913 -0.39771387 -0.18987525 -0.89764744 0.019185906
-0.06366697 0.14437434 -0.026054773 -0.15292998 -0.88486844 -0.44002312 0.012427152
-0.08524885 0.14845879 -0.031109881 -0.1860113 -0.85304689 -0.48755604 0.015654244
-0.06189052 0.16903988 -0.045021921 -0.18646584 -0.85284752 -0.48773098 0.015722066
-0.035144925 0.19272999 -0.063077465 -0.18632874 -0.85291398 -0.48766747 0.015678046
-0.1169312 0.17191598 -0.056087676 -0.18646584 -0.85284752 -0.48773098 0.015722066
-0.056073003 0.16490991 -0.074926674 -0.18629308 -0.85293317 -0.48764735 0.01566753
