# .PCD v0.7 - Point Cloud Data file format
VERSION 0.7
FIELDS x y z normal_x normal_y normal_z curvature
SIZE 4 4 4 4 4 4 4
TYPE F F F F F F F
COUNT 1 1 1 1 1 1 1
WIDTH 397
HEIGHT 1
VIEWPOINT 0 0 0 1 0 0 0
POINTS 397
DATA ascii
0.012473641 0.12295914 0.025077272 -0.16884723 -0.45159745 -0.87609947 0.0030943851
0.0065627596 0.09392681 0.032496039 -0.011541721 -0.46529692 -0.88507944 0.0056861709
-0.0059868926 0.098390438 0.052227315 0.14614862 -0.496488 -0.85565197 0.0056441575
0.00068191253 0.10880782 0.036738023 -0.52052444 -0.53684396 -0.66396749 0.0069778459
0.013333425 0.10479576 0.033328854 -0.50764346 -0.74296999 -0.4362267 0.012873111
0.03334406 0.11714936 0.030873425 -0.74675208 -0.59207439 -0.30300051 0.00816618
0.029218081 0.094735198 0.016975015 -0.59785169 -0.67759848 -0.42829144 0.015595004
0.018671975 0.1073548 0.02220853 -0.59158164 -0.74482262 -0.30865923 0.0096910615
0.032184195 0.10797646 0.031139182 -0.79553264 -0.56393856 -0.22158764 0.0077297003
0.019120637 0.10822291 0.035773318 -0.31086302 -0.74870217 -0.58549905 0.010855215
0.02035532 0.13240546 0.022276571 -0.15485749 -0.70128393 -0.69585913 0.0058102743
0.035093345 0.11365733 0.029260276 -0.32298067 -0.56194073 -0.76151562 0.0089428844
-0.0046076132 0.11713138 0.05490528 -0.17445859 -0.523031 -0.83426785 0.0039783465
0.005846939 0.12443519 0.030818565 -0.40127173 -0.79735625 -0.45078158 0.011859259
0.0085788034 0.12601222 0.037084114 -0.14846934 -0.86061466 -0.48713383 0.01193497
0.020918177 0.11699525 0.043258347 -0.50815374 -0.73633546 -0.44675478 0.013027777
-0.0060419696 0.10897057 0.022347422 0.021843739 -0.73292792 -0.6799556 0.0062952945
-0.0035911659 0.12290862 0.015890252 0.21974316 -0.7375769 -0.63850862 0.0058935038
0.0025080808 0.12388973 0.031287488 0.0033577818 -0.55838519 -0.82957506 0.0055112438
-0.03079946 0.11792996 0.049158562 0.18408856 -0.58010685 -0.79346544 0.0045971852
-0.0012589003 0.15040667 0.032334756 0.060926694 -0.89214551 -0.44762078 0.0071681938
-0.0075983163 0.13419534 0.020544779 0.25322157 -0.84287763 -0.474801 0.004851752
0.012464628 0.12487222 0.010801897 -0.30896688 -0.90670973 -0.28708377 0.0081693754
-0.0046536629 0.11815727 0.022094583 -0.18857701 -0.8954969 -0.40314254 0.0061773811
0.017099716 0.14089262 0.015046011 -0.030506011 -0.93418866 -0.35547286 0.0078295255
-0.00038060825 0.12839718 0.0035409071 0.20082667 -0.90866685 -0.36605063 0.0041274121
-0.022832546 0.10501676 0.042490721 0.17915623 -0.52085388 -0.83463424 0.0074276463
-0.076616287 0.15005344 0.038748547 -0.13361748 -0.37986907 -0.91533923 0.053038858
-0.066582046 0.14538103 0.051419418 -0.52148068 -0.439255 -0.73151416 0.026551403
-0.083322406 0.13270538 0.048096795 -0.10976201 -0.60856271 -0.78587765 0.030716548
-0.054494843 0.12751979 0.036516488 -0.64690953 -0.27790511 -0.71012449 0.0061066193
-0.057008896 0.13413338 0.063613705 -0.23028101 -0.50395799 -0.8324644 0.024193831
-0.064068444 0.11702953 0.051402453 0.20600085 -0.40636119 -0.89018774 0.042999495
-0.084535405 0.16314216 0.048237182 0.39670554 -0.63132799 -0.66637051 0.020071341
-0.096247971 0.12269935 0.053497955 0.49222195 -0.44529268 -0.74795187 0.027716169
-0.10008717 0.13356537 0.031013366 0.71588868 -0.35794571 -0.59948176 0.0061506582
-0.059809074 0.13173901 0.064566009 -0.44702551 0.026569208 -0.89412653 0.049122065
-0.086421371 0.13675961 0.053892288 -0.15109582 -0.14565089 -0.97772992 0.012987013
-0.069642633 0.11965618 0.056656584 0.49363372 -0.27387455 0.82542014 0.063380361
-0.072881378 0.12120362 0.044052359 0.089953512 -0.40322584 0.91066861 0.043889515
-0.046805672 0.13751443 0.022214804 0.7461043 0.10399755 0.65765715 0.025209237
-0.08000908 0.13794899 0.047020085 -0.43632671 -0.33852753 -0.83367741 0.025434997
-0.055253848 0.12915525 0.047375835 0.73735356 -0.31851915 0.59569734 0.030531738
-0.064878531 0.12010229 0.044003207 0.16830848 -0.65331757 0.7381385 0.032480057
-0.076898091 0.1283503 0.054703701 0.38682958 -0.01568961 -0.92201769 0.017833892
-0.077214964 0.11473768 0.041190326 0.15518065 0.31381333 -0.93671775 0.021380307
-0.07250277 0.11660716 0.042577952 0.66413164 -0.060075819 -0.74519807 0.016970368
-0.083743088 0.13116151 0.047085378 0.75927979 -0.1181355 -0.63995177 0.015361789
-0.077861786 0.11080667 0.034445759 0.4467158 0.38261694 -0.80873305 0.015345791
-0.080574453 0.11379959 0.059697188 0.67966002 0.12636337 -0.72256106 0.032478429
-0.0667236 0.1403071 0.03435868 -0.33762839 -0.71236515 -0.61525851 0.0429281
-0.04870759 0.15499987 0.035824392 -0.83237761 -0.38691509 -0.39679241 0.023426346
-0.041425101 0.15637919 0.00010286887 -0.29537779 -0.14131801 -0.94487101 0.06837023
-0.034460172 0.15853475 0.00085099734 -0.29537809 -0.14131688 -0.94487107 0.068370357
-0.025544733 0.16369466 -0.0058013033 -0.29537809 -0.14131688 -0.94487107 0.068370357
-0.026275851 0.17156315 0.016016353 -0.43437883 -0.10727591 -0.89431924 0.027991556
-0.05738033 0.15160042 -0.0080104042 -0.66571194 -0.53041917 -0.52486485 0.10940588
-0.043906622 0.17953824 0.001282033 -0.088684477 -0.32659593 -0.9409942 0.04067177
-0.052594632 0.16934396 0.012886228 -0.19820534 -0.51164192 -0.83602464 0.018989481
-0.039531142 0.15659295 0.013651704 -0.46768439 -0.15497798 -0.8702029 0.021614425
-0.035358995 0.1631618 0.016014382 -0.36611214 -0.40681309 -0.83693784 0.031957328
-0.072331041 0.1597157 0.038437933 -0.34849492 -0.73624218 -0.58008516 0.044005789
-0.087577969 0.16253386 0.031829197 0.037774783 -0.84826654 -0.52822059 0.019414406
-0.034929842 0.14531481 0.040301852 -0.34841642 -0.73644722 -0.57987207 0.043948863
-0.073413573 0.13600782 0.031207459 0.084375083 -0.85251749 -0.51584369 0.023248179
-0.083468944 0.15706305 0.036230471 0.36376482 -0.81080192 -0.4585579 0.0071089235
-0.080132373 0.15041611 0.019297738 0.41848749 -0.81323707 -0.40436816 0.011017915
-0.093095064 0.12937711 0.029857324 0.79803133 -0.46404663 -0.38445634 0.034933198
-0.037075516 0.16435221 0.0084343897 -0.66573882 -0.53037977 -0.52487051 0.10940783
-0.059977651 0.14768583 0.016655736 -0.36614218 -0.40679416 -0.83693397 0.031956732
-0.086782843 0.15978564 0.025573332 0.8514818 -0.36151975 -0.37984514 0.047997151
-0.036312684 0.13579419 0.04418724 -0.71406651 -0.25552902 -0.65177757 0.026650187
-0.062233277 0.13484603 0.031027542 -0.75563037 -0.25465611 -0.6034674 0.0062280181
-0.044101585 0.15525447 0.021345697 -0.83619982 -0.33200502 -0.43651178 0.027516434
-0.050360832 0.12598848 0.021488206 -0.77167147 -0.45983508 -0.43940294 0.015568241
-0.071231917 0.1362562 0.04268907 -0.82502484 -0.29802176 -0.48012191 0.016481433
-0.033995289 0.11961397 0.031246405 0.2189856 -0.77467448 -0.59323251 0.011681316
-0.02589017 0.11215778 0.029325202 0.25612333 -0.60931838 -0.75042123 0.0029822814
-0.0099400133 0.10345457 0.019421831 0.089117572 -0.69171697 -0.71664894 0.007182973
-0.026501276 0.11100246 0.029718645 0.21852617 -0.88355941 -0.41420898 0.0038163862
-0.03540913 0.1152334 0.023141243 -0.0098979417 -0.83467448 -0.55065459 0.0082057444
-0.031729445 0.12603478 0.036417682 0.23928009 -0.82670623 -0.50921685 0.0083035426
-0.0052712243 0.10391988 0.030881921 0.033354413 -0.81189781 -0.58284593 0.0085460329
-0.045163549 0.11876855 0.032912306 -0.6821875 -0.30016235 -0.6667254 0.010716889
-0.037404731 0.1221277 0.01471295 -0.055118669 -0.64711553 -0.7603969 0.0040871259
-0.061301984 0.11587887 0.054397088 -0.21478797 -0.3984302 -0.89169478 0.035277426
-0.027205206 0.1161105 0.01802801 -0.28772661 -0.71870273 -0.63299263 0.036527757
-0.055956073 0.12390302 0.037731808 -0.72714043 -0.35215625 -0.58928162 0.024528533
-0.028073147 0.10479072 0.0090818089 -0.28699586 -0.60819656 -0.74008805 0.046943106
-0.051036157 0.12591553 0.010287857 -0.63170999 -0.40763944 -0.65937287 0.035298273
-0.038484 0.14137058 -0.0084946342 0.42597631 0.069760799 0.90204078 0.013660887
-0.056288123 0.13385952 0.0049191155 -0.79792613 -0.50649345 -0.3267695 0.056300875
-0.041061167 0.13185354 0.018147957 -0.64400738 -0.55972904 -0.52149576 0.027122065
-0.050545089 0.13142723 -0.0031278674 -0.82856554 -0.35174406 -0.4356091 0.011342637
-0.045118578 0.15948597 0.014437279 -0.53052694 -0.1433237 -0.83546358 0.019582529
-0.04202709 0.1565596 0.012398378 -0.43282154 -0.42147359 -0.79688495 0.028641256
-0.018570686 0.14839171 0.013254248 0.21852911 -0.8835566 -0.41421345 0.0038136169
-0.044090942 0.11613132 0.014293793 -0.084133193 -0.80922121 -0.58144879 0.018533347
-0.037925657 0.11826339 0.031446807 -0.36518443 -0.63293225 -0.68266904 0.027313044
-0.061065245 0.15561989 0.050696578 -0.50408536 -0.44549564 -0.73988628 0.039870977
-0.067132182 0.13980822 0.042773653 -0.015496265 -0.7730304 -0.63417977 0.01780135
-0.067651853 0.12247708 0.059967525 -0.71306747 -0.24283816 -0.65769631 0.0063271122
-0.10091987 0.13056998 0.037345529 0.47669819 -0.71192718 -0.51567286 0.013532816
-0.098527759 0.1514045 0.039996535 0.78517169 -0.52193189 -0.33330569 0.024797359
-0.074114338 0.13834468 0.029330835 0.84258002 -0.39418849 -0.36697993 0.014366952
-0.080279604 0.16217239 0.017277436 0.5251044 -0.78348589 -0.33228782 0.025516272
-0.08689452 0.14122032 0.038362857 0.89614761 -0.32351896 -0.30373508 0.034004856
-0.091534659 0.12595828 0.037925236 0.95984846 -0.22861007 -0.16256762 0.007631606
-0.043756206 0.14546239 0.042817134 -0.70580089 -0.12846732 -0.69666433 0.016850151
-0.05718863 0.10637002 0.03992242 -0.49193445 -0.058857333 -0.86864048 0.040929805
-0.087909788 0.12449162 0.036138725 0.93956327 -0.17970741 -0.2914207 0.014043191
-0.090801984 0.11884183 0.02826743 0.86413795 0.33086988 -0.37919742 0.048940618
-0.09625873 0.14077453 0.025031177 0.98552257 -0.12056172 -0.11920663 0.0043064994
-0.087588154 0.12581019 0.014276708 0.98427206 0.16453789 0.064309932 0.029838379
-0.070372477 0.14748797 0.023880582 0.89614254 -0.32352197 -0.30374691 0.034012903
-0.080355696 0.14668044 0.027685016 0.95805603 -0.20726846 -0.1979098 0.0057622446
-0.091662131 0.11739878 0.0078874631 0.98243999 0.18117557 0.044576686 0.032072492
0.021754676 0.099458374 0.043263886 -0.50217587 -0.45149371 -0.73754513 0.0049769632
0.038866337 0.089969017 0.044055108 -0.66844445 -0.23813689 -0.70460826 0.0084011387
0.020880669 0.10032949 0.047620643 -0.52449149 -0.31101868 -0.79257548 0.0042440598
0.034621216 0.089706376 0.047780216 -0.68985844 -0.097785927 -0.71730965 0.0065412661
0.016335387 0.10092169 0.030368982 -0.5732041 -0.084137343 -0.81508148 0.0041391035
0.025532478 0.091573782 0.030293651 -0.6749531 0.049827036 -0.73617643 0.0027250601
0.020065233 0.079352707 0.058082141 -0.61608005 0.092481732 -0.78223556 0.0023465508
0.028691258 0.088144593 0.039984226 -0.37729472 -0.35353231 -0.85595769 0.0052667796
0.01945148 0.096037723 0.058243528 -0.18586323 -0.50761348 -0.8412987 0.012646539
0.015501415 0.092269219 0.019053871 -0.24998525 -0.50104308 -0.82853079 0.0050569442
0.013501862 0.081628382 0.053192265 -0.12115002 -0.45767561 -0.88082665 0.005781922
-0.0087668635 0.089548133 0.047038946 -0.37112617 -0.34566584 -0.8618471 0.0054108021
0.0024119089 0.10494176 0.066668592 -0.11644173 -0.59730524 -0.7935161 0.0055130087
-0.011585163 0.085939497 0.056205302 -0.024833232 -0.57589561 -0.81714606 0.012671551
-0.0056706541 0.092667736 0.044254672 0.13523138 -0.59376568 -0.7931928 0.014543219
-0.0010874425 0.10457499 0.046134468 0.026278881 -0.39993814 -0.91616535 0.002705948
-0.011701736 0.1043032 0.035730019 0.1192934 -0.39521939 -0.91080779 0.0015582
0.0018338155 0.10207038 0.050957486 -0.0069597415 -0.58737713 -0.80928338 0.015852297
-0.011813757 0.099802405 0.057546373 0.11381002 -0.60800987 -0.78572983 0.015490185
0.016884353 0.063798822 0.069101736 -0.40546137 -0.17009516 -0.89814734 0.0030322804
0.013074417 0.08105386 0.067523889 -0.29560381 -0.25577238 -0.92043406 0.0076185586
0.017529663 0.07706546 0.049312688 -0.44164523 0.016793245 -0.89703256 0.0038809509
-0.0064022848 0.089203157 0.071330681 -0.28453448 0.014439251 -0.95855707 0.0030511376
-0.00099716336 0.096088096 0.037278123 -0.48251823 -0.14953297 -0.86302727 0.0021532676
0.043999795 0.0750622 0.063565932 -0.54274106 0.042393196 -0.83882946 0.0043320926
0.0074431398 0.091783822 0.067464247 -0.085129447 -0.29672778 -0.95116013 0.021261316
-0.017311104 0.093070731 0.056592029 0.19515742 -0.19225521 -0.96174401 0.012458436
0.0016546764 0.063159503 0.061616078 -0.055512048 -0.015349915 -0.99833995 0.007448623
-0.008326008 0.084596097 0.041024271 0.2755622 0.10759915 -0.95524234 0.020187844
0.043779783 0.059218872 0.03333028 -0.64387792 0.13396259 -0.75330955 0.0024370786
0.026816398 0.044501428 0.034701765 -0.59509897 0.15709978 -0.78814769 0.001263492
0.040141594 0.062647887 0.027578518 -0.56684518 0.27811375 -0.77546078 0.0032190143
0.022261394 0.058530662 0.043112632 -0.60811114 0.31426507 -0.72899812 0.0063965297
0.027220648 0.063399382 0.058620814 -0.46439239 0.15635081 -0.87171906 0.0033340643
-0.0054135257 0.055892296 0.044214487 -0.29502016 0.15021715 -0.943609 0.0037481887
0.028494082 0.055469118 0.050652474 -0.44073677 0.28497621 -0.85119891 0.0053655636
-0.0037475014 0.052721694 0.051340833 -0.29052511 0.28976738 -0.91193748 0.0064742533
0.018173242 0.068859443 0.042477749 -0.51491582 0.17084281 -0.84004426 0.0017491818
0.0058228271 0.048542857 0.057178833 -0.51175618 0.28225034 -0.81144345 0.0029353874
0.03714513 0.037080172 0.0415731 -0.38840196 0.3981083 -0.83105576 0.0085874954
0.0010313006 0.074558549 0.066044368 -0.020316985 0.17890212 -0.98365712 0.004140513
-0.018417215 0.048279066 0.059748188 0.32926905 0.21563224 -0.91928482 0.01968986
0.0062726801 0.06951192 0.04431938 -0.0052823606 0.27603641 -0.96113271 0.0068042353
-0.010305854 0.046866603 0.054993887 0.32840732 0.26231068 -0.90738177 0.016386257
-0.024995552 0.051895984 0.056278698 0.24083789 0.01177044 -0.97049403 0.059673704
0.0078466302 0.034303658 0.05040228 -0.19795869 0.38478413 -0.90152842 0.0084427586
0.014693256 0.045625705 0.047783189 -0.48477679 0.32723331 -0.8111164 0.012247019
0.011592913 0.032977708 0.046310212 -0.21786378 0.42153558 -0.88025171 0.010199225
0.0025496585 0.023469621 0.056168068 -0.50713331 0.31902084 -0.80065072 0.014214325
0.0062798937 0.039600924 0.039392598 -0.24138522 0.43614018 -0.86689961 0.0099169947
0.0074762632 0.031275757 0.058303371 -0.038185336 0.39012834 -0.91996837 0.010735004
-0.0097260568 0.045415066 0.044223357 0.0094410116 0.079695806 -0.99677449 0.047492072
-0.022081196 0.038598664 0.050808057 -0.20715107 -0.25438344 -0.94465739 0.025480686
0.00099858781 0.044294164 0.038253482 -0.14519539 0.31627905 -0.93748909 0.018671323
-0.02001968 0.035337128 0.051920168 0.0094404668 0.079705797 -0.99677372 0.047494438
-0.0053290166 0.027721105 0.052592408 -0.14519632 0.31627876 -0.93748909 0.018673668
-0.0075794379 0.044905808 0.041616842 -0.18494596 0.016573779 -0.98260897 0.025298525
0.051155761 0.093550391 0.037503239 -0.92041755 -0.28093216 -0.27186149 0.0066030738
0.038924996 0.12500206 0.037308957 -0.69015884 -0.40015957 -0.60295367 0.0044354568
0.032118473 0.09970285 0.027892817 -0.52822232 -0.47807541 -0.70173007 0.0067754826
0.059246648 0.088310495 0.033195298 -0.7790432 -0.26857656 -0.56653172 0.0041775848
0.038305592 0.11863686 0.039886586 -0.65142018 -0.3041302 -0.69509459 0.0061181071
0.05084344 0.1070168 0.018370388 -0.8241421 -0.39830247 -0.40267223 0.0091458764
0.046218812 0.082552567 0.034249756 -0.74014568 -0.52058494 -0.42564726 0.011109083
0.04246844 0.11345831 0.027764164 -0.88692129 -0.31068045 -0.34183076 0.0038380553
0.055499971 0.094753534 0.021562967 -0.95414311 -0.11537059 -0.27622551 0.0076777046
0.056298036 0.086892635 0.026288765 -0.51798862 -0.50113165 -0.69322062 0.06503357
0.046520606 0.068511732 0.017063081 -0.69614828 -0.084045157 -0.71296144 0.044977665
0.047635645 0.086041242 0.047117025 -0.81002659 -0.061518699 -0.58315742 0.0046865996
0.027739942 0.070650756 0.02779036 -0.77414429 0.054391067 -0.63066804 0.0025961238
0.058400974 0.084545612 0.028940329 -0.89833516 -0.10155091 -0.42741233 0.0056578321
0.034930557 0.070057571 0.03493968 -0.8671717 -0.077556886 -0.49193311 0.013927608
0.058573157 0.10250934 -0.0033717304 -0.95895141 -0.22659501 -0.1704898 0.0043888544
0.065072387 0.1004197 0.013991467 -0.94115782 -0.30727333 -0.14073028 0.0059855459
0.052250147 0.10918076 -0.0024156831 -0.88866729 -0.41421592 -0.19671176 0.0021756196
0.039842799 0.096338376 0.020236624 -0.92437547 -0.33019742 -0.19104898 0.0041756001
0.049001686 0.077242129 0.030054338 -0.96485788 -0.19427004 -0.17694214 0.0036036982
0.052522384 0.081281312 0.018327352 -0.56342161 -0.42417717 -0.70896399 0.053529784
0.063946903 0.072381295 0.0173105 -0.5870927 -0.5095039 -0.62906915 0.043783061
0.049389992 0.079240859 0.019071486 -0.97563714 -0.16882955 -0.14010231 0.0032495963
0.031265374 0.093887664 0.052364603 -0.25648993 -0.49896565 -0.82779592 0.0047740079
0.012692535 0.097594999 0.031144148 -0.14828649 -0.48850796 -0.85986692 0.004848307
0.03487936 0.063664302 0.031312551 -0.35205206 -0.072589144 -0.93316144 0.031428069
0.064333275 0.057458684 0.027000144 -0.52020526 -0.44320381 -0.730039 0.049573082
0.05238336 0.054936983 0.0093149729 -0.2865766 -0.49326757 -0.82131654 0.032226685
0.040829793 0.05688154 0.010841369 -0.70871705 0.068796292 -0.7021305 0.029180726
0.050973151 0.064206406 0.017293055 -0.57538748 0.071726911 -0.81472969 0.043009475
0.026249651 0.078134261 0.041140959 -0.7568534 0.066869825 -0.65015489 0.0050594709
0.032315686 0.064762406 0.040950209 -0.668118 0.14268312 -0.73024642 0.0029397116
0.061620541 0.043471392 0.03208372 -0.49821573 0.01963944 -0.86683065 0.042904783
0.0087112114 0.056744594 0.03947638 -0.526851 0.27108574 -0.80556852 0.0028973371
0.061314404 0.050392188 0.0071763396 -0.78373605 -0.10993145 -0.61128795 0.036790907
0.055580124 0.068254687 0.019801084 -0.53708231 -0.022425119 -0.84323174 0.045972284
0.03694135 0.057559367 0.015020713 -0.3528904 0.34862784 -0.86828965 0.037123516
0.06960921 0.057665408 0.0090157613 -0.70719039 0.31820387 -0.63136995 0.016325338
0.059305318 0.058834404 0.027460357 -0.52652866 0.51785374 -0.67423666 0.0098816361
0.029330786 0.039132129 0.04388912 -0.36187053 0.47896025 -0.7997793 0.015337758
0.022467524 0.045960803 0.046450697 -0.57399821 0.45164311 -0.68304068 0.016997997
0.024704771 0.053539317 0.042519573 -0.68097848 0.28570601 -0.67427027 0.0093491748
0.063165441 0.031643216 0.0057740975 -0.37806544 0.51105171 -0.77194083 0.022927471
0.022499129 0.04506126 0.027937427 -0.53197962 0.50747716 -0.67783815 0.019725965
0.031203257 0.042173266 0.04420929 -0.39942452 0.69131386 -0.60211724 0.007815362
0.049859677 0.044436999 0.021384358 -0.53198594 0.50746638 -0.67784125 0.019722477
0.063136056 0.080007762 0.035771489 -0.56344873 -0.42420113 -0.70892805 0.053521059
0.047307696 0.069919758 0.015056277 -0.51798266 -0.50117189 -0.693196 0.065022051
0.073546484 0.053690549 0.027926598 -0.88730741 0.07214395 -0.45550054 0.044594601
0.04909106 0.037293479 0.023642406 -0.70719075 0.31820732 -0.6313678 0.016323969
0.045819372 0.024331393 0.02950789 -0.58164734 0.58193195 -0.56836736 0.014211843
0.020892078 0.054237317 0.046568472 -0.60811114 0.31426507 -0.72899812 0.0063965297
0.02740928 0.04506807 0.040111866 -0.59490627 0.43003449 -0.67908525 0.018004857
-0.035183832 0.08910089 0.050300423 0.34927082 -0.48287472 -0.80302054 0.018088751
-0.035846982 0.097304642 0.043185949 0.18082748 -0.437738 -0.88073081 0.0027749946
-0.036220387 0.10136172 0.043439534 0.11291887 -0.47436607 -0.87305558 0.0067759664
-0.019925324 0.10756968 0.037058383 0.2705847 -0.41650814 -0.86793143 0.023760239
-0.039579421 0.10845221 0.031144347 0.17280744 -0.2860494 -0.94250375 0.014363435
-0.033108424 0.11108039 0.038606163 0.00073640002 -0.45958629 -0.88813281 0.0045937961
-0.05125919 0.11652786 0.033823229 -0.03633894 -0.34159034 -0.93914616 0.00271941
-0.037588857 0.080623724 0.028573621 -0.0044234376 -0.22387859 -0.97460699 0.0070257671
-0.038507033 0.101046 0.06350182 -0.04023103 -0.22149211 -0.97433192 0.0042004804
-0.024915187 0.087190814 0.071034692 0.50618094 -0.16235481 -0.84700757 0.034249049
-0.035931103 0.069052473 0.057206042 0.68004489 -0.089362115 -0.72770423 0.030443884
-0.027516261 0.065883875 0.047748003 0.53606218 0.17085041 -0.82670885 0.018211767
-0.011241758 0.081931487 0.038207557 0.68004316 -0.089353099 -0.72770685 0.030443544
-0.037315145 0.088201225 0.067922696 0.2828007 -0.035433222 -0.95852399 0.027427558
-0.027819622 0.070284925 0.059566237 0.69481319 0.2732133 -0.66527379 0.01750415
-0.028078189 0.058272734 0.064152554 0.29757643 0.22898653 -0.92682981 0.031569399
-0.042893339 0.087717794 0.043635298 0.106451 0.0045626885 -0.99430746 0.028152194
-0.06152932 0.10130733 0.033059873 -0.038542189 0.067814387 -0.99695325 0.006826716
-0.031728029 0.08364062 0.048025634 -0.0079677086 0.18697172 -0.98233294 0.0034264468
-0.048589192 0.064505547 0.038480654 0.038096964 0.28818578 -0.95681643 0.0087176375
-0.066961303 0.098198749 0.057944916 -0.029402535 -0.25662446 -0.9660638 0.036180034
-0.064162865 0.12309568 0.03824861 0.084962435 -0.63697439 0.76618856 0.040219717
-0.047572289 0.1001291 0.033735119 0.16092302 -0.22269997 -0.96151358 0.0058681369
-0.057875559 0.09710326 0.0366746 0.4036282 -0.0080862371 -0.91488731 0.038544029
-0.075258866 0.11134338 0.047826905 -0.31796536 -0.75363255 0.57527047 0.0096438928
-0.0705036 0.073590532 0.034789883 0.17248975 0.045638345 -0.98395348 0.0073326589
-0.077985853 0.087065019 0.02851622 0.42582259 0.091916025 -0.90012586 0.01168427
-0.054985821 0.080163084 0.049731515 0.19923167 0.37411079 -0.90573061 0.0082584694
-0.068591267 0.08097776 0.037374452 0.41895124 0.42133331 -0.80433702 0.0084476769
-0.031806529 0.058958374 0.042504326 0.65199536 0.23585072 -0.72060847 0.018073827
-0.0085497443 0.069807351 0.043112259 0.55176026 0.18901981 -0.8123005 0.01541355
-0.015632572 0.076001674 0.038607031 0.69483125 0.28809536 -0.65894651 0.018995659
-0.02203189 0.083429419 0.04030839 0.05322047 0.19476742 -0.97940451 0.032201033
-0.021288108 0.049617335 0.032789163 0.69635779 0.11462907 -0.70848149 0.021707475
-0.039138135 0.054856747 0.039019287 -0.061588861 0.12001347 -0.99085999 0.010013676
-0.027583923 0.07613983 0.050088648 0.10316385 0.13051817 -0.98606396 0.020321144
-0.046844997 0.070013113 0.056374222 0.18421111 0.32899684 -0.92618972 0.015567646
-0.051142596 0.069710702 0.04100085 0.16084772 0.15765952 -0.97430557 0.030772509
-0.010223311 0.043761175 0.034684628 0.1091383 -0.44714984 -0.88777572 0.033779215
-0.021401802 0.043674793 0.048143707 0.29156253 -0.59619606 -0.74802518 0.039049324
-0.016077926 0.015137162 0.036199745 -0.075991563 -0.25113225 -0.96496522 0.025803825
-0.052766554 0.025702357 0.059109043 0.30103204 -0.48792616 -0.81933367 0.032826744
-0.03398231 0.065642558 0.057190105 0.29242998 -0.44415969 -0.84688061 0.077966951
-0.02666878 0.03908971 0.037075531 0.36673963 -0.60464549 -0.70704025 0.0094668921
-0.043067377 0.041445553 0.039883479 0.39517462 -0.55422795 -0.73257649 0.01399758
-0.037195086 0.052139677 0.040383767 0.10855728 -0.51931661 -0.84765881 0.029278623
-0.06264805 0.027699968 0.027430808 0.082651727 -0.48762557 -0.86913168 0.025466334
-0.05842169 0.027026134 0.036762245 0.15547548 -0.66415334 -0.73125088 0.02137457
-0.049552836 0.018581809 0.048440151 0.14657496 -0.59871596 -0.78743577 0.031854171
-0.067116551 0.046093795 0.04659377 0.35994217 -0.78289491 -0.50746149 0.050245311
-0.06657324 0.048872139 0.046605736 0.27816954 -0.61602265 -0.73697889 0.070127271
-0.015084312 0.097916126 0.063514829 0.21418424 -0.47806239 -0.85181069 0.0033514106
-0.028992683 0.10366435 0.034082577 0.10414454 -0.5102818 -0.85367811 0.00511677
-0.046124246 0.12321316 0.045047864 -0.038321562 -0.47359723 -0.87990749 0.0054788273
-0.033737946 0.11301872 0.038800504 -0.077510841 -0.42872471 -0.90010399 0.0054551302
-0.0546211 0.10157564 0.034882095 -0.19225384 -0.14292401 -0.97088164 0.072213292
-0.083773941 0.10401352 0.045057949 -0.12120762 -0.54344511 0.83064801 0.11271713
-0.067555301 0.13001332 0.045691311 0.57305831 -0.0035732505 -0.81950676 0.033460639
-0.081973739 0.12802389 0.027134469 0.7911132 0.17815721 -0.58514953 0.055837024
-0.087533332 0.099037513 0.023994375 0.70376015 -0.11795598 -0.7005769 0.0059455447
-0.089336053 0.11242194 0.0074637551 0.84119576 0.021250656 -0.54031295 0.033550162
-0.08576449 0.10955162 0.013979058 0.87406546 -0.16717812 -0.45613703 0.0070871506
-0.074844524 0.1039058 0.021537242 0.84734458 -0.091733746 -0.52306026 0.0057304609
-0.09095186 0.086691827 0.040459398 0.90336299 -0.11470471 -0.41325316 0.0070019392
-0.088224672 0.085574389 0.033791799 0.56156623 0.1044868 -0.82080805 0.0091117797
-0.075581759 0.070572458 0.033577003 0.26235282 0.46205065 -0.8471601 0.0077266204
-0.054094926 0.079927079 0.043787077 0.53422672 0.41966563 -0.73381364 0.0055706957
-0.073970921 0.07218504 0.032350026 0.67109746 0.6318242 -0.38784823 0.0044638016
-0.059860446 0.097546995 0.011176663 0.73211843 0.15737711 -0.6627481 0.010024117
-0.070616789 0.065238461 0.031404901 0.69276303 0.45652202 -0.55827153 0.0087372195
-0.083697684 0.08097925 0.029464714 0.83963245 0.18885627 -0.50926477 0.0076140678
-0.082069382 0.093135208 0.0029961374 0.8909108 0.13929515 -0.43229026 0.012848299
-0.082781903 0.093478218 0.01940956 0.78641486 0.46373811 -0.40804234 0.0062469114
-0.079976089 0.11605259 0.011446376 0.82173651 0.22532307 -0.52342957 0.049227774
-0.082904473 0.12756343 0.011126218 0.86681664 0.0054754531 -0.498597 0.033453744
-0.097041793 0.097795866 0.025163362 0.90338933 -0.11469468 -0.41319811 0.0069744457
-0.10707046 0.097938254 0.030639539 0.89179856 0.414648 -0.18100342 0.0088002766
-0.097789608 0.095495075 0.0090455366 0.97110236 0.13235515 -0.19860105 0.021748984
-0.08928325 0.07444337 0.02054175 0.84889227 0.48539269 -0.20922697 0.0035174063
-0.061156921 0.073410176 -0.002251335 0.82750958 0.52928513 -0.18731017 0.0049080662
-0.043046575 0.052570723 0.045687616 0.43814281 0.22409004 -0.87052548 0.040726949
-0.015904903 0.06971094 0.054533143 0.042627886 0.20684171 -0.97744536 0.036731411
-0.037816036 0.068931207 0.040911816 0.46868646 -0.18745917 -0.86324513 0.057940684
-0.025415722 0.054573786 0.022664804 -0.011200796 -0.10971908 -0.99389958 0.049078658
-0.051894225 0.063268334 0.039161995 0.27066356 0.20376664 -0.94086152 0.014609119
-0.056691673 0.063684024 0.059741884 0.45068917 0.51399606 -0.72985429 0.025667811
-0.064068511 0.055651974 0.060202334 0.1486076 -0.041601405 -0.98802084 0.041527726
-0.039053082 0.055795372 0.051797949 0.6727168 0.11576855 -0.73078698 0.042428575
-0.056736793 0.058677875 0.037961975 0.59951371 0.53357315 -0.59655923 0.043033648
-0.065191336 0.060871515 0.032613695 0.83461094 0.44335803 -0.32689163 0.075001374
-0.049045727 0.019942757 0.048420519 0.062156912 -0.34150508 -0.9378224 0.049006518
-0.03565719 0.05013622 0.032843422 0.18698144 -0.34636065 -0.9192782 0.045123689
-0.049291465 0.032865755 0.032363527 0.24271692 -0.67756188 -0.69426107 0.051133763
-0.053192228 0.032656804 0.02879448 0.3495166 -0.61714137 -0.70496428 0.042339273
-0.048283972 0.051365696 0.0090819784 0.73811674 -0.5837099 0.33832872 0.10117272
-0.041247454 0.057797402 0.016592773 0.55382234 -0.62194115 0.55359733 0.074788764
-0.046914369 0.056564603 0.015840828 0.71343958 -0.5019455 0.48893222 0.076894961
-0.051783204 0.071455516 0.012595791 0.58453882 -0.60774499 0.53755039 0.087734967
-0.063519955 0.089571968 0.051284947 -0.29371658 -0.70654899 0.64383167 0.0069489204
-0.052054878 0.055777024 0.025386173 0.51250762 0.6654157 -0.54273182 0.0082743121
-0.0602833 0.05812664 0.025011538 -0.36954576 -0.80908924 0.45695794 0.0015373469
-0.058546457 0.088495173 0.025094647 -0.53203923 -0.76704764 0.35856968 0.0046437387
-0.038563237 0.034000337 0.019743465 -0.36452094 -0.86008775 0.3568942 0.0045510111
-0.06202155 0.085459337 -0.0023783427 -0.45134526 -0.75177139 0.48075694 0.0056222733
-0.07044585 0.069495723 0.023672728 0.72853959 0.59948909 -0.33142552 0.0062416438
-0.073921606 0.042471737 0.013801157 0.53365648 -0.68499517 -0.49597609 0.040642425
-0.076783985 0.021732306 0.034864392 0.53365141 -0.68499339 -0.49598423 0.04063797
-0.061848897 0.03014162 0.0052137915 0.58283192 -0.78510177 -0.20957632 0.040994368
-0.059538841 0.042630438 0.015557257 -0.52006978 -0.77749521 0.35359377 0.0054407413
-0.047464635 0.060635544 -0.0013379939 -0.34448564 -0.88180333 0.32210648 0.0041377745
-0.064801663 0.055935897 0.015060324 -0.49395499 -0.764835 0.41356477 0.0061281542
-0.041856438 0.033661179 -0.01255009 0.58451724 -0.60774255 0.53757656 0.087737001
-0.08061897 0.081550285 0.0027018515 0.73846012 0.65186685 -0.17247072 0.0068075666
-0.053880192 0.037513196 0.016093932 0.46874011 -0.60717469 -0.64157742 0.005866745
-0.065894924 0.042264078 0.0091442307 0.46878213 -0.60720211 -0.64152074 0.0058589075
-0.061783839 0.019939803 0.0044361176 0.46878806 -0.60721052 -0.64150858 0.0058575436
-0.093290575 0.042180393 0.0065114223 0.46882352 -0.60723507 -0.64145941 0.0058502122
-0.05523612 0.043220691 0.0087573789 0.5694347 -0.66778845 -0.47937754 0.016703486
-0.060822207 0.05239094 0.0087603116 0.47598499 -0.67020458 -0.56944197 0.0028901543
-0.066094965 0.040130392 0.001629462 0.47598499 -0.67020458 -0.56944197 0.0028901543
-0.024596574 0.16516131 -0.016384047 -0.69538468 -0.23898028 -0.67773783 0.0056980988
-0.0055849729 0.16875878 -0.015134896 -0.5923745 -0.24637972 -0.76706547 0.01349183
-0.010219779 0.16481648 -0.0079091229 -0.43222958 -0.51712793 -0.73875326 0.00369721
-0.019422945 0.16128232 -0.0076013622 -0.39357325 -0.48935169 -0.77822554 0.0063953851
-0.0089775119 0.16477482 -0.026379904 -0.52248943 -0.46689072 -0.71345484 0.006487147
-0.012417482 0.16624528 -0.033460367 -0.45074272 -0.5343765 -0.71503335 0.0045233937
-0.013846445 0.18933909 -0.040975116 -0.69996727 -0.29157621 -0.65194255 0.0068006245
-0.021549478 0.17044528 -0.048969969 -0.64671504 -0.3023999 -0.70022422 0.011895906
-0.019845761 0.160753 -0.013559044 -0.59230733 -0.37863559 -0.71120119 0.0092242574
-0.019716365 0.17977574 -0.012224599 0.67986989 0.016672963 0.73314315 0.0095390202
-0.017482134 0.18920283 -0.0091223018 0.67986888 0.016679294 0.73314404 0.0095392438
-0.0076892599 0.18195501 0.00095645431 0.67986959 0.016676841 0.73314333 0.0095393462
-0.027219847 0.18069857 -0.0040325499 0.63255119 -0.029571004 0.7739538 0.017594624
-0.009202023 0.1988983 -0.014900239 0.70246118 0.038495716 0.71068025 0.0076522529
-0.023657043 0.15515427 -0.022941511 0.66117793 0.027738377 0.7497161 0.0099074291
-0.021986287 0.17791791 -0.011746554 0.60842365 0.096019991 0.78778219 0.021824442
-0.04228884 0.17506886 0.00039464049 -0.29537752 -0.14131819 -0.94487101 0.06837032
-0.017066685 0.1766845 0.0071101757 -0.38129494 -0.48171195 -0.78902966 0.006038486
-0.038530823 0.15876916 0.013076624 -0.62478781 -0.1951244 -0.75602031 0.019099949
-0.023119271 0.16047992 -0.012868143 -0.37730029 -0.50651139 -0.77530044 0.0046436773
-0.032046478 0.1538471 0.0018926308 -0.46141326 -0.12661076 -0.87810451 0.027269369
-0.0081271967 0.17750353 -0.011284925 -0.43273494 -0.47357085 -0.76711875 0.0067598876
-0.023459671 0.15944222 -0.0056064944 0.60842371 0.096020497 0.78778213 0.021823406
-0.028719658 0.17809962 -0.00025631208 -0.30108872 -0.091772109 -0.94916987 0.064206578
-0.041143473 0.16793309 0.0024051508 -0.16683987 -0.35772914 -0.91880053 0.042867519
-0.043745667 0.15507019 -0.0015926962 -0.50185984 -0.16620237 -0.84883064 0.034010869
-0.057351232 0.15652163 0.026842903 0.2064072 -0.93305117 -0.29463804 0.015543612
-0.044124998 0.16583577 -0.022162443 0.2064072 -0.93305117 -0.29463804 0.015543612
-0.058433719 0.17748794 -0.018589143 0.19103831 -0.86545706 -0.46312907 0.031841654
-0.069057599 0.14023064 -0.025552433 0.19091524 -0.86551589 -0.46306965 0.031785745
-0.089255735 0.16151391 -0.01911903 0.18612653 -0.91787857 -0.350508 0.025151037
-0.075484 0.16308527 8.689519e-05 0.23880717 -0.85915995 -0.45256522 0.034051653
-0.086263046 0.16839395 -0.023982184 0.22228232 -0.8792305 -0.42136011 0.03356503
-0.076096945 0.1734477 -0.018476166 0.18266542 -0.91310471 -0.36451766 0.025214965
-0.07681153 0.18578283 -0.02673655 -0.025542269 -0.91648245 -0.39925876 0.019174108
-0.078393154 0.17412066 -0.049002629 -0.025476603 -0.91650516 -0.39921072 0.019112799
-0.060328618 0.16042659 -0.043561541 0.15715888 -0.88196146 -0.44434786 0.02887252
-0.081386305 0.17910165 -0.022163386 0.1767879 -0.88837665 -0.42371312 0.027746443
-0.070616327 0.17968532 -0.02077488 0.054610178 -0.91556865 -0.39843675 0.014395946
-0.074878626 0.16571006 -0.038589228 0.098481193 -0.88386661 -0.45725399 0.010965914
-0.084188707 0.15594611 -0.024772305 0.21544355 -0.87500358 -0.43353528 0.026826311
-0.074603342 0.16939363 -0.01821946 0.2222922 -0.87915635 -0.42150956 0.033694346
-0.081355833 0.18093181 -0.032518413 0.18613139 -0.85368556 -0.4863908 0.012735247
-0.038014751 0.16692056 0.017332954 -0.39771387 -0.18987525 -0.89764744 0.019185906
-0.070863895 0.16312592 -0.056532737 -0.15292998 -0.88486844 -0.44002312 0.012427152
-0.070747271 0.18427727 -0.043182682 -0.1860113 -0.85304689 -0.48755604 0.015654244
-0.072269708 0.17431976 -0.052884292 -0.18646584 -0.85284752 -0.48773098 0.015722066
-0.078143276 0.19480163 -0.051604416 -0.18632874 -0.85291398 -0.48766747 0.015678046
-0.075823113 0.16278461 -0.058993779 -0.18646584 -0.85284752 -0.48773098 0.015722066
-0.075366408 0.18592498 -0.05130294 -0.18629308 -0.85293317 -0.48764735 0.01566753
