# .PCD v0.7 - Point Cloud Data file format
VERSION 0.7
FIELDS x y z normal_x normal_y normal_z curvature
SIZE 4 4 4 4 4 4 4
TYPE F F F F F F F
COUNT 1 1 1 1 1 1 1
WIDTH 397
HEIGHT 1
VIEWPOINT 0 0 0 1 0 0 0
POINTS 397
DATA ascii
0.021809191 0.10829712 0.035932101 -0.16884723 -0.45159745 -0.87609947 0.0030943851
0.0021703821 0.12461531 0.049646847 -0.011541721 -0.46529692 -0.88507944 0.0056861709
-0.021208059 0.099321149 0.037543412 0.14614862 -0.496488 -0.85565197 0.0056441575
0.022141507 0.12741593 0.054435007 -0.52052444 -0.53684396 -0.66396749 0.0069778459
0.035107963 0.11398214 0.021420792 -0.50764346 -0.74296999 -0.4362267 0.012873111
0.035264466 0.12351568 0.03434661 -0.74675208 -0.59207439 -0.30300051 0.00816618
0.011098649 0.12545134 0.034750074 -0.59785169 -0.67759848 -0.42829144 0.015595004
0.013607037 0.12877995 0.022431057 -0.59158164 -0.74482262 -0.30865923 0.0096910615
0.036501389 0.10530696 0.011714769 -0.79553264 -0.56393856 -0.22158764 0.0077297003
0.027852301 0.1012742 0.041382357 -0.31086302 -0.74870217 -0.58549905 0.010855215
0.0054303925 0.13091743 0.032552391 -0.15485749 -0.70128393 -0.69585913 0.0058102743
0.01785915 0.12071247 0.03795008 -0.32298067 -0.56194073 -0.76151562 0.0089428844
0.018527782 0.11625039 0.037449412 -0.17445859 -0.523031 -0.83426785 0.0039783465
0.020496579 0.10614778 0.039004322 -0.40127173 -0.79735625 -0.45078158 0.011859259
0.0086567663 0.12875023 0.021614542 -0.14846934 -0.86061466 -0.48713383 0.01193497
0.013615331 0.13493034 0.04196582 -0.50815374 -0.73633546 -0.44675478 0.013027777
-0.0042548305 0.11922845 0.043037329 0.021843739 -0.73292792 -0.6799556 0.0062952945
-0.020523384 0.11692886 0.021481607 0.21974316 -0.7375769 -0.63850862 0.0058935038
0.0011085793 0.12122507 0.051447049 0.0033577818 -0.55838519 -0.82957506 0.0055112438
-0.0066543259 0.12559253 0.044950463 0.18408856 -0.58010685 -0.79346544 0.0045971852
0.0077503487 0.14822111 0.0058240332 0.060926694 -0.89214551 -0.44762078 0.0071681938
-0.018111143 0.12749428 0.018088037 0.25322157 -0.84287763 -0.474801 0.004851752
0.022206087 0.12387805 0.026760688 -0.30896688 -0.90670973 -0.28708377 0.0081693754
0.011594756 0.11524965 0.030841019 -0.18857701 -0.8954969 -0.40314254 0.0061773811
0.00033610163 0.12383193 0.022570441 -0.030506011 -0.93418866 -0.35547286 0.0078295255
-0.032434523 0.1311968 0.0072958125 0.20082667 -0.90866685 -0.36605063 0.0041274121
-0.0029425323 0.12028499 0.037701219 0.17915623 -0.52085388 -0.83463424 0.0074276463
-0.071878619 0.12118367 0.042893484 -0.13361748 -0.37986907 -0.91533923 0.053038858
-0.05002952 0.14016086 0.045049425 -0.52148068 -0.439255 -0.73151416 0.026551403
-0.064293213 0.13141824 0.028622366 -0.10976201 -0.60856271 -0.78587765 0.030716548
-0.070504434 0.13963689 0.054057911 -0.64690953 -0.27790511 -0.71012449 0.0061066193
-0.079606175 0.13914178 0.063981816 -0.23028101 -0.50395799 -0.8324644 0.024193831
-0.069227621 0.13085282 0.058651946 0.20600085 -0.40636119 -0.89018774 0.042999495
-0.082002945 0.14485972 0.066371851 0.39670554 -0.63132799 -0.66637051 0.020071341
-0.079594962 0.1482939 0.056317337 0.49222195 -0.44529268 -0.74795187 0.027716169
-0.07711298 0.12735389 0.056964144 0.71588868 -0.35794571 -0.59948176 0.0061506582
-0.072278008 0.13781928 0.043139942 -0.44702551 0.026569208 -0.89412653 0.049122065
-0.05421862 0.11868832 0.070141375 -0.15109582 -0.14565089 -0.97772992 0.012987013
-0.06201867 0.13295239 0.055105932 0.49363372 -0.27387455 0.82542014 0.063380361
-0.047444444 0.12540691 0.056637432 0.089953512 -0.40322584 0.91066861 0.043889515
-0.074295022 0.13067073 0.037874322 0.7461043 0.10399755 0.65765715 0.025209237
-0.080231905 0.13600138 0.046283901 -0.43632671 -0.33852753 -0.83367741 0.025434997
-0.06248543 0.10893336 0.041156236 0.73735356 -0.31851915 0.59569734 0.030531738
-0.080358393 0.10527753 0.044776287 0.16830848 -0.65331757 0.7381385 0.032480057
-0.083926484 0.14345337 0.039821398 0.38682958 -0.01568961 -0.92201769 0.017833892
-0.08470165 0.12021612 0.058795817 0.15518065 0.31381333 -0.93671775 0.021380307
-0.098109581 0.1311774 0.042927537 0.66413164 -0.060075819 -0.74519807 0.016970368
-0.11181799 0.1331083 0.040745061 0.75927979 -0.1181355 -0.63995177 0.015361789
-0.1005633 0.11610379 0.053790845 0.4467158 0.38261694 -0.80873305 0.015345791
-0.079862781 0.11128157 0.046638016 0.67966002 0.12636337 -0.72256106 0.032478429
-0.054454502 0.14830907 0.025451975 -0.33762839 -0.71236515 -0.61525851 0.0429281
-0.056634206 0.15817676 0.019862542 -0.83237761 -0.38691509 -0.39679241 0.023426346
-0.028387599 0.158373 0.0033631683 -0.29537779 -0.14131801 -0.94487101 0.06837023
-0.039954919 0.15976219 0.0022802728 -0.29537809 -0.14131688 -0.94487107 0.068370357
-0.046206381 0.14298826 -0.0082228649 -0.29537809 -0.14131688 -0.94487107 0.068370357
-0.0283866 0.17210239 0.0033411798 -0.43437883 -0.10727591 -0.89431924 0.027991556
-0.050336458 0.14787167 0.0079909666 -0.66571194 -0.53041917 -0.52486485 0.10940588
-0.038741928 0.1705433 -0.013455045 -0.088684477 -0.32659593 -0.9409942 0.04067177
-0.048624761 0.16775689 0.0082056616 -0.19820534 -0.51164192 -0.83602464 0.018989481
-0.058498353 0.15605599 0.001632964 -0.46768439 -0.15497798 -0.8702029 0.021614425
-0.041417792 0.14330015 0.025845334 -0.36611214 -0.40681309 -0.83693784 0.031957328
-0.063020356 0.15327427 0.037198957 -0.34849492 -0.73624218 -0.58008516 0.044005789
-0.050125852 0.1599154 0.017132834 0.037774783 -0.84826654 -0.52822059 0.019414406
-0.06755165 0.14237162 0.012553301 -0.34841642 -0.73644722 -0.57987207 0.043948863
-0.064760357 0.1400315 0.022149572 0.084375083 -0.85251749 -0.51584369 0.023248179
-0.082966961 0.14969011 0.024856169 0.36376482 -0.81080192 -0.4585579 0.0071089235
-0.069057085 0.14760371 0.025032846 0.41848749 -0.81323707 -0.40436816 0.011017915
-0.095707543 0.13878392 0.019653054 0.79803133 -0.46404663 -0.38445634 0.034933198
-0.068398088 0.16840766 0.0070648221 -0.66573882 -0.53037977 -0.52487051 0.10940783
-0.064613029 0.16530533 0.0075735734 -0.36614218 -0.40679416 -0.83693397 0.031956732
-0.081289865 0.15854199 0.014054665 0.8514818 -0.36151975 -0.37984514 0.047997151
-0.057580054 0.13420914 0.028012373 -0.71406651 -0.25552902 -0.65177757 0.026650187
-0.062635139 0.13719542 0.046057649 -0.75563037 -0.25465611 -0.6034674 0.0062280181
-0.051658276 0.16100627 0.035032786 -0.83619982 -0.33200502 -0.43651178 0.027516434
-0.043131847 0.11880289 0.012706975 -0.77167147 -0.45983508 -0.43940294 0.015568241
-0.042145714 0.15195432 0.018594837 -0.82502484 -0.29802176 -0.48012191 0.016481433
0.001001589 0.11277319 0.012367876 0.2189856 -0.77467448 -0.59323251 0.011681316
-0.020101219 0.096630715 0.010495152 0.25612333 -0.60931838 -0.75042123 0.0029822814
-0.024813876 0.10189402 0.041757017 0.089117572 -0.69171697 -0.71664894 0.007182973
-0.015675761 0.11825338 0.025156345 0.21852617 -0.88355941 -0.41420898 0.0038163862
-0.037657522 0.13713661 0.035181277 -0.0098979417 -0.83467448 -0.55065459 0.0082057444
-0.025640236 0.11627226 0.04165905 0.23928009 -0.82670623 -0.50921685 0.0083035426
-0.037147507 0.12653184 0.020760706 0.033354413 -0.81189781 -0.58284593 0.0085460329
-0.042219974 0.12594694 0.037921466 -0.6821875 -0.30016235 -0.6667254 0.010716889
-0.049236145 0.12303632 0.027820202 -0.055118669 -0.64711553 -0.7603969 0.0040871259
-0.06471207 0.12271243 0.025276743 -0.21478797 -0.3984302 -0.89169478 0.035277426
-0.0222065 0.12872106 0.010640665 -0.28772661 -0.71870273 -0.63299263 0.036527757
-0.056395598 0.13636497 0.030312436 -0.72714043 -0.35215625 -0.58928162 0.024528533
-0.05304594 0.13615763 0.026868509 -0.28699586 -0.60819656 -0.74008805 0.046943106
-0.029078251 0.10561019 0.037918281 -0.63170999 -0.40763944 -0.65937287 0.035298273
-0.05450391 0.16754374 0.0014990873 0.42597631 0.069760799 0.90204078 0.013660887
-0.04425877 0.15032116 0.028614167 -0.79792613 -0.50649345 -0.3267695 0.056300875
-0.06562075 0.11648597 0.016244758 -0.64400738 -0.55972904 -0.52149576 0.027122065
-0.056937009 0.136346 0.0044034338 -0.82856554 -0.35174406 -0.4356091 0.011342637
-0.031949248 0.15061408 0.0046924078 -0.53052694 -0.1433237 -0.83546358 0.019582529
-0.063926682 0.14449595 0.02593339 -0.43282154 -0.42147359 -0.79688495 0.028641256
-0.015267534 0.12076247 0.022284973 0.21852911 -0.8835566 -0.41421345 0.0038136169
-0.020698812 0.13975874 0.017065674 -0.084133193 -0.80922121 -0.58144879 0.018533347
-0.01630008 0.13294198 0.0017579123 -0.36518443 -0.63293225 -0.68266904 0.027313044
-0.059190959 0.15687646 0.031983253 -0.50408536 -0.44549564 -0.73988628 0.039870977
-0.064947523 0.13897556 0.031484582 -0.015496265 -0.7730304 -0.63417977 0.01780135
-0.052716617 0.14357525 0.02467552 -0.71306747 -0.24283816 -0.65769631 0.0063271122
-0.081308752 0.13853228 0.040086567 0.47669819 -0.71192718 -0.51567286 0.013532816
-0.097953752 0.15013532 0.032971308 0.78517169 -0.52193189 -0.33330569 0.024797359
-0.10511511 0.13584864 0.052930422 0.84258002 -0.39418849 -0.36697993 0.014366952
-0.075510919 0.14483963 0.017556995 0.5251044 -0.78348589 -0.33228782 0.025516272
-0.081906319 0.14232409 0.027766539 0.89614761 -0.32351896 -0.30373508 0.034004856
-0.095880739 0.14104398 0.0033360608 0.95984846 -0.22861007 -0.16256762 0.007631606
-0.073234543 0.11172026 0.03460617 -0.70580089 -0.12846732 -0.69666433 0.016850151
-0.047213703 0.11632095 0.038884953 -0.49193445 -0.058857333 -0.86864048 0.040929805
-0.090598561 0.13953494 0.022893289 0.93956327 -0.17970741 -0.2914207 0.014043191
-0.077026255 0.11471231 0.051452223 0.86413795 0.33086988 -0.37919742 0.048940618
-0.080419041 0.11620371 0.0070537571 0.98552257 -0.12056172 -0.11920663 0.0043064994
-0.10693915 0.117848 0.01733149 0.98427206 0.16453789 0.064309932 0.029838379
-0.090378858 0.15262203 0.008037746 0.89614254 -0.32352197 -0.30374691 0.034012903
-0.10068712 0.13234705 0.0103275 0.95805603 -0.20726846 -0.1979098 0.0057622446
-0.091895021 0.12088397 0.0055215489 0.98243999 0.18117557 0.044576686 0.032072492
0.036870558 0.10939784 0.040994793 -0.50217587 -0.45149371 -0.73754513 0.0049769632
0.042459175 0.08796224 0.045619201 -0.66844445 -0.23813689 -0.70460826 0.0084011387
0.023388103 0.10859997 0.046942536 -0.52449149 -0.31101868 -0.79257548 0.0042440598
0.040218137 0.076747663 0.042518787 -0.68985844 -0.097785927 -0.71730965 0.0065412661
0.019885127 0.11275557 0.050058179 -0.5732041 -0.084137343 -0.81508148 0.0041391035
0.026199471 0.079969265 0.041771568 -0.6749531 0.049827036 -0.73617643 0.0027250601
0.025615282 0.061170727 0.04741732 -0.61608005 0.092481732 -0.78223556 0.0023465508
0.01039986 0.096808061 0.03785827 -0.37729472 -0.35353231 -0.85595769 0.0052667796
-0.021415155 0.092405766 0.060845163 -0.18586323 -0.50761348 -0.8412987 0.012646539
0.027821276 0.11157367 0.046882246 -0.24998525 -0.50104308 -0.82853079 0.0050569442
-4.1697174e-05 0.099959485 0.034337334 -0.12115002 -0.45767561 -0.88082665 0.005781922
0.017930361 0.10250156 0.049785607 -0.37112617 -0.34566584 -0.8618471 0.0054108021
0.0033432418 0.090226755 0.054011576 -0.11644173 -0.59730524 -0.7935161 0.0055130087
0.0076970942 0.10795503 0.06603875 -0.024833232 -0.57589561 -0.81714606 0.012671551
-0.0076794541 0.085128568 0.043450534 0.13523138 -0.59376568 -0.7931928 0.014543219
-0.018355953 0.10958631 0.041355316 0.026278881 -0.39993814 -0.91616535 0.002705948
-0.019113954 0.10979138 0.039745227 0.1192934 -0.39521939 -0.91080779 0.0015582
0.026273564 0.11710735 0.049640905 -0.0069597415 -0.58737713 -0.80928338 0.015852297
-0.015721615 0.095869094 0.035889346 0.11381002 -0.60800987 -0.78572983 0.015490185
0.022238074 0.084688209 0.048356656 -0.40546137 -0.17009516 -0.89814734 0.0030322804
0.0014573652 0.069683492 0.038048856 -0.29560381 -0.25577238 -0.92043406 0.0076185586
0.012213068 0.083221152 0.047078781 -0.44164523 0.016793245 -0.89703256 0.0038809509
0.01639601 0.080055632 0.062343102 -0.28453448 0.014439251 -0.95855707 0.0030511376
0.027900495 0.10432007 0.054528732 -0.48251823 -0.14953297 -0.86302727 0.0021532676
0.026508339 0.081442885 0.055093236 -0.54274106 0.042393196 -0.83882946 0.0043320926
0.01023899 0.085995816 0.065138601 -0.085129447 -0.29672778 -0.95116013 0.021261316
-0.009671581 0.074168131 0.053258322 0.19515742 -0.19225521 -0.96174401 0.012458436
0.0013724505 0.076536618 0.054496545 -0.055512048 -0.015349915 -0.99833995 0.007448623
-0.0060121506 0.090659052 0.050689075 0.2755622 0.10759915 -0.95524234 0.020187844
0.029912062 0.069413923 0.040252421 -0.64387792 0.13396259 -0.75330955 0.0024370786
0.019109525 0.065057345 0.039765332 -0.59509897 0.15709978 -0.78814769 0.001263492
0.04477391 0.059332076 0.049874663 -0.56684518 0.27811375 -0.77546078 0.0032190143
0.01770585 0.040804535 0.041347895 -0.60811114 0.31426507 -0.72899812 0.0063965297
0.0019504298 0.066606849 0.037628084 -0.46439239 0.15635081 -0.87171906 0.0033340643
0.017880233 0.056002334 0.05191505 -0.29502016 0.15021715 -0.943609 0.0037481887
0.017789163 0.069392838 0.040081836 -0.44073677 0.28497621 -0.85119891 0.0053655636
-0.00030581281 0.06940864 0.050720535 -0.29052511 0.28976738 -0.91193748 0.0064742533
0.029595807 0.061945073 0.076184712 -0.51491582 0.17084281 -0.84004426 0.0017491818
0.0048363106 0.073584437 0.054510579 -0.51175618 0.28225034 -0.81144345 0.0029353874
0.01089214 0.055834442 0.067289248 -0.38840196 0.3981083 -0.83105576 0.0085874954
-0.00096310314 0.06637869 0.069874585 -0.020316985 0.17890212 -0.98365712 0.004140513
-0.0098859398 0.062372435 0.064607166 0.32926905 0.21563224 -0.91928482 0.01968986
0.0031736949 0.045553729 0.045030661 -0.0052823606 0.27603641 -0.96113271 0.0068042353
-0.016486304 0.050855938 0.046753354 0.32840732 0.26231068 -0.90738177 0.016386257
-0.017703371 0.069669388 0.063067824 0.24083789 0.01177044 -0.97049403 0.059673704
0.0055630771 0.051731136 0.054092273 -0.19795869 0.38478413 -0.90152842 0.0084427586
0.02146733 0.060002584 0.038910411 -0.48477679 0.32723331 -0.8111164 0.012247019
0.011440185 0.042027391 0.060148627 -0.21786378 0.42153558 -0.88025171 0.010199225
0.0091950735 0.062165618 0.03424786 -0.50713331 0.31902084 -0.80065072 0.014214325
0.0092153475 0.050912011 0.048795868 -0.24138522 0.43614018 -0.86689961 0.0099169947
-0.0073415255 0.043595534 0.054222159 -0.038185336 0.39012834 -0.91996837 0.010735004
-0.031793691 0.049318857 0.042566575 0.0094410116 0.079695806 -0.99677449 0.047492072
-0.022204174 0.030036755 0.045001633 -0.20715107 -0.25438344 -0.94465739 0.025480686
-0.012424991 0.048297424 0.048429966 -0.14519539 0.31627905 -0.93748909 0.018671323
-0.004742662 0.044327207 0.052400507 0.0094404668 0.079705797 -0.99677372 0.047494438
0.006981899 0.042812448 0.037138015 -0.14519632 0.31627876 -0.93748909 0.018673668
-0.0098335901 0.046549935 0.039892189 -0.18494596 0.016573779 -0.98260897 0.025298525
0.0315804 0.08349359 0.03875833 -0.92041755 -0.28093216 -0.27186149 0.0066030738
0.03537656 0.11140952 0.022425815 -0.69015884 -0.40015957 -0.60295367 0.0044354568
0.040326014 0.12227513 0.042297576 -0.52822232 -0.47807541 -0.70173007 0.0067754826
0.043827586 0.10102616 0.023089048 -0.7790432 -0.26857656 -0.56653172 0.0041775848
0.019871619 0.089653976 0.037442785 -0.65142018 -0.3041302 -0.69509459 0.0061181071
0.036090072 0.11566702 0.037220687 -0.8241421 -0.39830247 -0.40267223 0.0091458764
0.048548616 0.12886588 0.042886999 -0.74014568 -0.52058494 -0.42564726 0.011109083
0.021279244 0.095382743 0.01049874 -0.88692129 -0.31068045 -0.34183076 0.0038380553
0.050859287 0.11497761 0.015204193 -0.95414311 -0.11537059 -0.27622551 0.0076777046
0.070200473 0.074620619 0.013904552 -0.51798862 -0.50113165 -0.69322062 0.06503357
0.047119007 0.081595443 0.018397387 -0.69614828 -0.084045157 -0.71296144 0.044977665
0.038592529 0.080267221 0.014102424 -0.81002659 -0.061518699 -0.58315742 0.0046865996
0.042688526 0.082500726 0.029626066 -0.77414429 0.054391067 -0.63066804 0.0025961238
0.041716438 0.086819574 0.014615631 -0.89833516 -0.10155091 -0.42741233 0.0056578321
0.024513621 0.072759822 0.014870317 -0.8671717 -0.077556886 -0.49193311 0.013927608
0.048388243 0.087364934 0.033160541 -0.95895141 -0.22659501 -0.1704898 0.0043888544
0.044334494 0.10845446 0.0089820987 -0.94115782 -0.30727333 -0.14073028 0.0059855459
0.033612899 0.10052223 0.0036868704 -0.88866729 -0.41421592 -0.19671176 0.0021756196
0.045183174 0.1066326 0.016653713 -0.92437547 -0.33019742 -0.19104898 0.0041756001
0.046395998 0.10454497 0.020688212 -0.96485788 -0.19427004 -0.17694214 0.0036036982
0.074435182 0.069892831 0.018100074 -0.56342161 -0.42417717 -0.70896399 0.053529784
0.024034373 0.056353621 0.014395685 -0.5870927 -0.5095039 -0.62906915 0.043783061
0.050401043 0.10483384 0.011537935 -0.97563714 -0.16882955 -0.14010231 0.0032495963
0.0064791255 0.11120572 0.030082483 -0.25648993 -0.49896565 -0.82779592 0.0047740079
-0.0057674311 0.10132447 0.033620559 -0.14828649 -0.48850796 -0.85986692 0.004848307
0.031802192 0.041641083 0.040817831 -0.35205206 -0.072589144 -0.93316144 0.031428069
0.066377707 0.083668001 0.016732268 -0.52020526 -0.44320381 -0.730039 0.049573082
0.055346593 0.06508065 0.028672522 -0.2865766 -0.49326757 -0.82131654 0.032226685
0.058767125 0.069039375 0.034558952 -0.70871705 0.068796292 -0.7021305 0.029180726
0.045057885 0.075021587 0.028426627 -0.57538748 0.071726911 -0.81472969 0.043009475
0.038036399 0.052023936 0.033850342 -0.7568534 0.066869825 -0.65015489 0.0050594709
0.030345572 0.048891291 0.027762022 -0.668118 0.14268312 -0.73024642 0.0029397116
0.035636541 0.070223749 0.04085169 -0.49821573 0.01963944 -0.86683065 0.042904783
0.0037341192 0.038165141 0.047360659 -0.526851 0.27108574 -0.80556852 0.0028973371
0.048126101 0.065429516 0.022341585 -0.78373605 -0.10993145 -0.61128795 0.036790907
0.019463813 0.05475723 0.034239672 -0.53708231 -0.022425119 -0.84323174 0.045972284
0.04932148 0.057948049 0.015204161 -0.3528904 0.34862784 -0.86828965 0.037123516
0.046084218 0.058194358 0.031537347 -0.70719039 0.31820387 -0.63136995 0.016325338
0.044082046 0.059540536 0.026332635 -0.52652866 0.51785374 -0.67423666 0.0098816361
0.049773932 0.054016829 0.045480844 -0.36187053 0.47896025 -0.7997793 0.015337758
0.030809185 0.048640344 0.04355168 -0.57399821 0.45164311 -0.68304068 0.016997997
0.023872903 0.039057035 0.042169426 -0.68097848 0.28570601 -0.67427027 0.0093491748
0.041958965 0.027542163 0.016125545 -0.37806544 0.51105171 -0.77194083 0.022927471
0.043700095 0.031873994 0.029745912 -0.53197962 0.50747716 -0.67783815 0.019725965
0.051345527 0.049812146 0.026047606 -0.39942452 0.69131386 -0.60211724 0.007815362
0.027581707 0.041617874 0.037967108 -0.53198594 0.50746638 -0.67784125 0.019722477
0.041213699 0.064673245 -0.001789758 -0.56344873 -0.42420113 -0.70892805 0.053521059
0.036317259 0.079548337 0.024754513 -0.51798266 -0.50117189 -0.693196 0.065022051
0.062433541 0.048491001 0.023361571 -0.88730741 0.07214395 -0.45550054 0.044594601
0.066856913 0.06234742 0.02173919 -0.70719075 0.31820732 -0.6313678 0.016323969
0.054235294 0.035288665 0.0067700194 -0.58164734 0.58193195 -0.56836736 0.014211843
0.019347396 0.045247212 0.033654936 -0.60811114 0.31426507 -0.72899812 0.0063965297
0.025453439 0.054294743 0.030978937 -0.59490627 0.43003449 -0.67908525 0.018004857
-0.024470747 0.086637139 0.061412051 0.34927082 -0.48287472 -0.80302054 0.018088751
0.0026457105 0.11097261 0.045297775 0.18082748 -0.437738 -0.88073081 0.0027749946
-0.029849812 0.10685612 0.04048368 0.11291887 -0.47436607 -0.87305558 0.0067759664
-0.018929671 0.088793851 0.026743248 0.2705847 -0.41650814 -0.86793143 0.023760239
-0.03508313 0.090837643 0.038158197 0.17280744 -0.2860494 -0.94250375 0.014363435
-0.019435951 0.10974717 0.068217143 0.00073640002 -0.45958629 -0.88813281 0.0045937961
-0.060299959 0.10478626 0.045383092 -0.03633894 -0.34159034 -0.93914616 0.00271941
-0.056059733 0.087677725 0.041005015 -0.0044234376 -0.22387859 -0.97460699 0.0070257671
-0.033686988 0.11412662 0.042418689 -0.04023103 -0.22149211 -0.97433192 0.0042004804
-0.019397084 0.088557154 0.048134085 0.50618094 -0.16235481 -0.84700757 0.034249049
-0.01818537 0.10430755 0.043061815 0.68004489 -0.089362115 -0.72770423 0.030443884
-0.016770169 0.072734535 0.04714914 0.53606218 0.17085041 -0.82670885 0.018211767
-0.01546235 0.10364568 0.041060071 0.68004316 -0.089353099 -0.72770685 0.030443544
-0.052830309 0.075787999 0.051968124 0.2828007 -0.035433222 -0.95852399 0.027427558
-0.017341843 0.073415644 0.044508226 0.69481319 0.2732133 -0.66527379 0.01750415
-0.020600718 0.0774979 0.052496597 0.29757643 0.22898653 -0.92682981 0.031569399
-0.046773359 0.099105611 0.052832294 0.106451 0.0045626885 -0.99430746 0.028152194
-0.036894582 0.096067458 0.051748186 -0.038542189 0.067814387 -0.99695325 0.006826716
-0.036732718 0.066109762 0.050594732 -0.0079677086 0.18697172 -0.98233294 0.0034264468
-0.05665236 0.070496961 0.04344305 0.038096964 0.28818578 -0.95681643 0.0087176375
-0.075894967 0.10687894 0.049213983 -0.029402535 -0.25662446 -0.9660638 0.036180034
-0.073040217 0.099945687 0.036014684 0.084962435 -0.63697439 0.76618856 0.040219717
-0.065354086 0.10473295 0.0401606 0.16092302 -0.22269997 -0.96151358 0.0058681369
-0.063210182 0.082759798 0.046069924 0.4036282 -0.0080862371 -0.91488731 0.038544029
-0.074888334 0.10386316 0.026549838 -0.31796536 -0.75363255 0.57527047 0.0096438928
-0.07059551 0.066089243 0.046449628 0.17248975 0.045638345 -0.98395348 0.0073326589
-0.071455933 0.073160753 0.03379523 0.42582259 0.091916025 -0.90012586 0.01168427
-0.055047158 0.076554313 0.036927521 0.19923167 0.37411079 -0.90573061 0.0082584694
-0.060643714 0.092871398 0.054386422 0.41895124 0.42133331 -0.80433702 0.0084476769
-0.030863823 0.083228886 0.063344143 0.65199536 0.23585072 -0.72060847 0.018073827
-0.024448942 0.067994103 0.04508223 0.55176026 0.18901981 -0.8123005 0.01541355
-0.026412113 0.065555364 0.052670591 0.69483125 0.28809536 -0.65894651 0.018995659
-0.029033307 0.062917054 0.038106129 0.05322047 0.19476742 -0.97940451 0.032201033
-0.019853536 0.051423386 0.041352749 0.69635779 0.11462907 -0.70848149 0.021707475
-0.027384397 0.066141695 0.044407405 -0.061588861 0.12001347 -0.99085999 0.010013676
-0.047053926 0.083439857 0.050971061 0.10316385 0.13051817 -0.98606396 0.020321144
-0.047626603 0.079835027 0.04247589 0.18421111 0.32899684 -0.92618972 0.015567646
-0.03344772 0.055291783 0.061072037 0.16084772 0.15765952 -0.97430557 0.030772509
-0.020555213 0.047813233 0.046883378 0.1091383 -0.44714984 -0.88777572 0.033779215
-0.019802019 0.046648663 0.059813619 0.29156253 -0.59619606 -0.74802518 0.039049324
-0.016076513 0.040211614 0.062086102 -0.075991563 -0.25113225 -0.96496522 0.025803825
-0.025372803 0.032662403 0.061378993 0.30103204 -0.48792616 -0.81933367 0.032826744
-0.037149392 0.057620402 0.045333184 0.29242998 -0.44415969 -0.84688061 0.077966951
-0.027725885 0.061780557 0.043251127 0.36673963 -0.60464549 -0.70704025 0.0094668921
-0.055525005 0.063450351 0.052945659 0.39517462 -0.55422795 -0.73257649 0.01399758
-0.046266615 0.067133904 0.030731887 0.10855728 -0.51931661 -0.84765881 0.029278623
-0.044912707 0.045426197 0.052100681 0.082651727 -0.48762557 -0.86913168 0.025466334
-0.05238346 0.040127188 0.040025346 0.15547548 -0.66415334 -0.73125088 0.02137457
-0.063264087 0.037282418 0.034626961 0.14657496 -0.59871596 -0.78743577 0.031854171
-0.054117836 0.060646474 0.046423443 0.35994217 -0.78289491 -0.50746149 0.050245311
-0.053595148 0.043724854 0.045641039 0.27816954 -0.61602265 -0.73697889 0.070127271
-0.017068159 0.11562684 0.026993934 0.21418424 -0.47806239 -0.85181069 0.0033514106
-0.031322747 0.10409522 0.038679145 0.10414454 -0.5102818 -0.85367811 0.00511677
-0.041903771 0.11459148 0.037179984 -0.038321562 -0.47359723 -0.87990749 0.0054788273
-0.066139288 0.1179285 0.044053916 -0.077510841 -0.42872471 -0.90010399 0.0054551302
-0.04512088 0.10242736 0.031370435 -0.19225384 -0.14292401 -0.97088164 0.072213292
-0.0635814 0.084409647 0.039897826 -0.12120762 -0.54344511 0.83064801 0.11271713
-0.067355238 0.11149282 0.035527758 0.57305831 -0.0035732505 -0.81950676 0.033460639
-0.061912667 0.088776395 0.018753134 0.7911132 0.17815721 -0.58514953 0.055837024
-0.074693799 0.11339548 0.03133481 0.70376015 -0.11795598 -0.7005769 0.0059455447
-0.07625445 0.11174314 0.016915977 0.84119576 0.021250656 -0.54031295 0.033550162
-0.084103972 0.094951265 0.034326404 0.87406546 -0.16717812 -0.45613703 0.0070871506
-0.092859253 0.098215662 0.033698365 0.84734458 -0.091733746 -0.52306026 0.0057304609
-0.098490447 0.10120479 0.015221342 0.90336299 -0.11470471 -0.41325316 0.0070019392
-0.059275728 0.097838372 0.019663488 0.56156623 0.1044868 -0.82080805 0.0091117797
-0.075178795 0.069656447 0.043655977 0.26235282 0.46205065 -0.8471601 0.0077266204
-0.054988109 0.06943319 0.039610334 0.53422672 0.41966563 -0.73381364 0.0055706957
-0.064892486 0.071023494 0.0067185704 0.67109746 0.6318242 -0.38784823 0.0044638016
-0.096826762 0.091084763 0.027313784 0.73211843 0.15737711 -0.6627481 0.010024117
-0.086646117 0.094561428 0.025773011 0.69276303 0.45652202 -0.55827153 0.0087372195
-0.088243835 0.10149022 0.028075229 0.83963245 0.18885627 -0.50926477 0.0076140678
-0.08081159 0.093256839 0.031156704 0.8909108 0.13929515 -0.43229026 0.012848299
-0.083688073 0.064729534 0.011555139 0.78641486 0.46373811 -0.40804234 0.0062469114
-0.075265862 0.11826822 0.021836828 0.82173651 0.22532307 -0.52342957 0.049227774
-0.072387271 0.099637918 0.013680299 0.86681664 0.0054754531 -0.498597 0.033453744
-0.089807034 0.11930016 0.0090660304 0.90338933 -0.11469468 -0.41319811 0.0069744457
-0.083054855 0.081013568 0.028288633 0.89179856 0.414648 -0.18100342 0.0088002766
-0.09212254 0.066014029 0.021475973 0.97110236 0.13235515 -0.19860105 0.021748984
-0.082397431 0.064509608 0.018750466 0.84889227 0.48539269 -0.20922697 0.0035174063
-0.08189749 0.05969217 0.013694062 0.82750958 0.52928513 -0.18731017 0.0049080662
-0.031529624 0.073177353 0.034442984 0.43814281 0.22409004 -0.87052548 0.040726949
-0.024929037 0.065210961 0.0212954 0.042627886 0.20684171 -0.97744536 0.036731411
-0.024591269 0.072914213 0.023470644 0.46868646 -0.18745917 -0.86324513 0.057940684
-0.038520578 0.04705089 0.029258937 -0.011200796 -0.10971908 -0.99389958 0.049078658
-0.039148916 0.067761421 0.053421818 0.27066356 0.20376664 -0.94086152 0.014609119
-0.046300855 0.064537987 0.045806266 0.45068917 0.51399606 -0.72985429 0.025667811
-0.040373169 0.056170363 0.035284091 0.1486076 -0.041601405 -0.98802084 0.041527726
-0.055041648 0.064749129 0.036026161 0.6727168 0.11576855 -0.73078698 0.042428575
-0.044801876 0.04953767 0.023842474 0.59951371 0.53357315 -0.59655923 0.043033648
-0.06435477 0.079639308 0.008478038 0.83461094 0.44335803 -0.32689163 0.075001374
-0.032185908 0.065964952 0.025355801 0.062156912 -0.34150508 -0.9378224 0.049006518
-0.048313286 0.042520884 0.015078563 0.18698144 -0.34636065 -0.9192782 0.045123689
-0.042556994 0.051746223 0.043672226 0.24271692 -0.67756188 -0.69426107 0.051133763
-0.035389163 0.047011748 0.0366407 0.3495166 -0.61714137 -0.70496428 0.042339273
-0.060464557 0.05546673 -0.00018950552 0.73811674 -0.5837099 0.33832872 0.10117272
-0.043517537 0.064982645 0.0067958352 0.55382234 -0.62194115 0.55359733 0.074788764
-0.070734002 0.034092966 0.015413813 0.71343958 -0.5019455 0.48893222 0.076894961
-0.046236321 0.045021571 0.027989775 0.58453882 -0.60774499 0.53755039 0.087734967
-0.05596295 0.066910952 0.032657359 -0.29371658 -0.70654899 0.64383167 0.0069489204
-0.073042296 0.074693315 0.033208247 0.51250762 0.6654157 -0.54273182 0.0082743121
-0.071043074 0.049504068 0.015185791 -0.36954576 -0.80908924 0.45695794 0.0015373469
-0.065864399 0.052030873 0.021364549 -0.53203923 -0.76704764 0.35856968 0.0046437387
-0.057091996 0.051794775 0.012392396 -0.36452094 -0.86008775 0.3568942 0.0045510111
-0.067615479 0.062057454 0.012272422 -0.45134526 -0.75177139 0.48075694 0.0056222733
-0.094064668 0.063157871 0.019101527 0.72853959 0.59948909 -0.33142552 0.0062416438
-0.06596449 0.052117635 0.049385581 0.53365648 -0.68499517 -0.49597609 0.040642425
-0.082339473 0.04132719 0.029130075 0.53365141 -0.68499339 -0.49598423 0.04063797
-0.071087092 0.034546431 0.024354659 0.58283192 -0.78510177 -0.20957632 0.040994368
-0.076816261 0.067417122 0.01930593 -0.52006978 -0.77749521 0.35359377 0.0054407413
-0.058339857 0.05277326 0.013730429 -0.34448564 -0.88180333 0.32210648 0.0041377745
-0.060760483 0.080277875 0.038195513 -0.49395499 -0.764835 0.41356477 0.0061281542
-0.033504412 0.057820018 -0.024841951 0.58451724 -0.60774255 0.53757656 0.087737001
-0.099129856 0.069738299 0.01923912 0.73846012 0.65186685 -0.17247072 0.0068075666
-0.073687963 0.033794001 -0.0034125019 0.46874011 -0.60717469 -0.64157742 0.005866745
-0.046650089 0.037484918 8.9600682e-05 0.46878213 -0.60720211 -0.64152074 0.0058589075
-0.081560969 0.030935308 -0.005222654 0.46878806 -0.60721052 -0.64150858 0.0058575436
-0.058359731 0.037421729 0.021338454 0.46882352 -0.60723507 -0.64145941 0.0058502122
-0.060960393 0.052109759 0.0065318625 0.5694347 -0.66778845 -0.47937754 0.016703486
-0.07675299 0.033133749 -0.0091396719 0.47598499 -0.67020458 -0.56944197 0.0028901543
-0.076873839 0.051839061 0.020155795 0.47598499 -0.67020458 -0.56944197 0.0028901543
-0.013906937 0.16911818 -0.0080305273 -0.69538468 -0.23898028 -0.67773783 0.0056980988
-0.0095888432 0.19424179 -0.01043696 -0.5923745 -0.24637972 -0.76706547 0.01349183
-0.00085119531 0.16170798 -0.009840915 -0.43222958 -0.51712793 -0.73875326 0.00369721
-0.029557209 0.15213054 -0.017765226 -0.39357325 -0.48935169 -0.77822554 0.0063953851
-0.018764853 0.18293822 -0.028999399 -0.52248943 -0.46689072 -0.71345484 0.006487147
-0.0018298766 0.16585328 -0.0010955492 -0.45074272 -0.5343765 -0.71503335 0.0045233937
-0.0059708189 0.19184037 -0.044413093 -0.69996727 -0.29157621 -0.65194255 0.0068006245
-0.016605116 0.19111404 -0.025201637 -0.64671504 -0.3023999 -0.70022422 0.011895906
-0.032707304 0.1722185 -0.023905138 -0.59230733 -0.37863559 -0.71120119 0.0092242574
-0.024062324 0.18056349 -0.030829478 0.67986989 0.016672963 0.73314315 0.0095390202
-0.011127491 0.18626894 -0.020539671 0.67986888 0.016679294 0.73314404 0.0095392438
-0.023635123 0.19722407 -0.011940315 0.67986959 0.016676841 0.73314333 0.0095393462
-0.022936432 0.17194134 -0.021217074 0.63255119 -0.029571004 0.7739538 0.017594624
-0.0050784582 0.17892855 -0.0010767821 0.70246118 0.038495716 0.71068025 0.0076522529
-0.023584116 0.15465009 -0.015425156 0.66117793 0.027738377 0.7497161 0.0099074291
-0.020950828 0.1768133 -0.0074789887 0.60842365 0.096019991 0.78778219 0.021824442
-0.05845096 0.18152253 0.0097701931 -0.29537752 -0.14131819 -0.94487101 0.06837032
-0.039681677 0.17037368 -0.01394663 -0.38129494 -0.48171195 -0.78902966 0.006038486
-0.033100247 0.16040331 -0.0010743274 -0.62478781 -0.1951244 -0.75602031 0.019099949
-0.017112579 0.14956309 5.8723148e-05 -0.37730029 -0.50651139 -0.77530044 0.0046436773
-0.0077692028 0.14495054 -0.0039039878 -0.46141326 -0.12661076 -0.87810451 0.027269369
-0.018506121 0.17842166 -0.0037825797 -0.43273494 -0.47357085 -0.76711875 0.0067598876
-0.031582605 0.16756321 -0.0098775979 0.60842371 0.096020497 0.78778213 0.021823406
-0.030947778 0.15653929 0.001434473 -0.30108872 -0.091772109 -0.94916987 0.064206578
-0.03789223 0.15934643 0.005016698 -0.16683987 -0.35772914 -0.91880053 0.042867519
-0.04617567 0.14929304 -0.0065947212 -0.50185984 -0.16620237 -0.84883064 0.034010869
-0.054910701 0.16636024 -0.022684403 0.2064072 -0.93305117 -0.29463804 0.015543612
-0.082495481 0.16325624 0.017551191 0.2064072 -0.93305117 -0.29463804 0.015543612
-0.04554224 0.15939189 -0.016135857 0.19103831 -0.86545706 -0.46312907 0.031841654
-0.082201622 0.17125332 -0.02024232 0.19091524 -0.86551589 -0.46306965 0.031785745
-0.06611339 0.15739149 -0.010783133 0.18612653 -0.91787857 -0.350508 0.025151037
-0.072896682 0.13244002 -0.027372804 0.23880717 -0.85915995 -0.45256522 0.034051653
-0.081069119 0.1699833 0.0010169167 0.22228232 -0.8792305 -0.42136011 0.03356503
-0.083094403 0.14762507 -0.027920652 0.18266542 -0.91310471 -0.36451766 0.025214965
-0.08465682 0.17142145 -0.043260157 -0.025542269 -0.91648245 -0.39925876 0.019174108
-0.072017349 0.17879596 -0.044096977 -0.025476603 -0.91650516 -0.39921072 0.019112799
-0.071880177 0.18128529 0.0044265967 0.15715888 -0.88196146 -0.44434786 0.02887252
-0.05566109 0.17255183 -0.00036959536 0.1767879 -0.88837665 -0.42371312 0.027746443
-0.06616921 0.16353618 -0.031959295 0.054610178 -0.91556865 -0.39843675 0.014395946
-0.083427779 0.17313775 -0.035296414 0.098481193 -0.88386661 -0.45725399 0.010965914
-0.061977804 0.1725551 -0.0090009384 0.21544355 -0.87500358 -0.43353528 0.026826311
-0.07955607 0.16059135 -0.034329206 0.2222922 -0.87915635 -0.42150956 0.033694346
-0.094678134 0.17294767 -0.033134229 0.18613139 -0.85368556 -0.4863908 0.012735247
-0.028629661 0.14973879 0.007613983 -0.39771387 -0.18987525 -0.89764744 0.019185906
-0.071262024 0.17271586 -0.038979322 -0.15292998 -0.88486844 -0.44002312 0.012427152
-0.070678927 0.1707823 -0.044698659 -0.1860113 -0.85304689 -0.48755604 0.015654244
-0.074472673 0.19007564 -0.059531454 -0.18646584 -0.85284752 -0.48773098 0.015722066
-0.072181709 0.1755195 -0.069260769 -0.18632874 -0.85291398 -0.48766747 0.015678046
-0.057972305 0.18278265 -0.038996965 -0.18646584 -0.85284752 -0.48773098 0.015722066
-0.070073441 0.16852543 -0.052980907 -0.18629308 -0.85293317 -0.48764735 0.01566753
