# .PCD v0.7 - Point Cloud Data file format
VERSION 0.7
FIELDS x y z intensity
SIZE 4 4 4 4
TYPE F F F F
COUNT 1 1 1 1
WIDTH 1088
HEIGHT 1
VIEWPOINT 0 0 0 1 0 0 0
POINTS 1088
DATA ascii
0.30183136 0.48228514 0.91710293 0.25974974
0.98458862 0.48996028 0.4160977 0.55510998
0.68924272 0.2025926 0.53832036 0.073533371
0.18518329 0.17208149 0.86564535 1.3352801
0.74420106 0.55824554 0.33596307 0.38241825
0.26591134 0.83456224 0.16431151 1.0297298
0.36772493 0.64841366 0.66444725 0.12958491
0.44902828 0.88635802 0.5590238 0.422654
0.99987912 0.52062523 0.50617945 0.53210723
0.16270061 0.14895877 0.4387857 0.17295681
0.79330051 0.5964396 0.92176145 0.91684747
0.90717322 0.80575585 0.8077994 1.0383387
0.81253302 0.95782715 0.83172858 0.72727764
0.50481725 0.51670873 0.56039637 0.35351443
0.29825747 0.64710826 0.73503184 0.48338941
0.066432223 0.44399124 0.40595642 0.046672709
0.24661395 0.63067776 0.45512682 0.12453722
0.06675335 0.0080725998 0.65190655 0.067362547
0.0043015811 0.42648762 0.52753419 0.47963244
0.54147005 0.75946087 0.33694798 0.19230698
0.671561 0.96411514 0.57129395 0.64168167
0.38912445 0.31367695 0.29633904 0.14807437
0.86038792 0.47461092 0.0298797 0.3974995
0.99321473 0.51999259 0.85897976 0.81524765
0.97749305 0.74114472 0.19934076 0.39470226
0.63687956 0.34084392 0.98148406 0.87140119
0.43058494 0.29912469 0.77703267 0.3597818
0.5285753 0.88330442 0.65576655 0.4067421
0.82537323 0.68088782 0.67543882 0.17261189
0.39935362 0.55264628 0.10625453 0.22479808
0.90247035 0.86922091 0.75835907 0.28525856
0.4110164 0.74323577 0.46482447 0.72766948
0.67324191 0.24829003 0.54176867 0.55453837
0.95689595 0.32109052 0.68143082 0.038094096
0.45081198 0.41279164 0.68229645 0.0025856176
0.69712961 0.076349095 0.24019572 0.30099446
0.80905992 0.10875024 0.61198324 1.0432241
0.60516924 0.97671145 0.12529776 0.90956283
0.17467806 0.63179582 0.54876167 0.1871486
0.64405 0.94257021 0.10082132 0.04866581
0.37820685 0.84842759 0.92639536 0.14006113
0.16496833 0.42843938 0.19008905 0.21188235
0.32806829 0.28502899 0.3157829 0.19747603
0.90687245 0.374466 0.96581548 1.0023595
0.1478698 0.95307583 0.31402245 0.47668856
0.030170806 0.59120035 0.80125523 0.62111133
0.67882961 0.30215403 0.11502072 0.073741406
0.33754253 0.89263308 0.60660267 0.17246804
0.96289182 0.74468666 0.27001375 0.55044925
0.91809046 0.67408842 0.15394527 0.15473446
0.18203077 0.8035019 0.37131083 0.79527497
0.62923908 0.82186377 0.48011452 0.1635834
0.7096799 0.71121436 0.43823096 0.79542792
0.37472796 0.79231465 0.70137352 0.23895361
0.008925789 0.60258645 0.37119761 0.37938979
0.66729254 0.77530181 0.66344947 0.48060736
0.74021173 0.42327344 0.44657776 0.19206563
0.58591151 0.42699152 0.13710365 0.87525141
0.41810328 0.56827772 0.39592829 0.18873633
0.38329014 0.52792656 0.7058295 0.66430724
0.84965694 0.76044929 0.38033944 0.38576761
0.2357173 0.035161283 0.44906554 0.33938032
0.55076015 0.11579491 0.92327708 0.51150376
0.86479038 0.60484213 0.25600576 0.17244068
0.14737731 0.69745606 0.33533627 0.36711073
0.067415789 0.81581473 0.73482245 0.16055399
0.04446891 0.92253929 0.74311107 0.2512638
0.0097480118 0.61079568 0.34684891 0.20910183
0.45517588 0.22770016 0.89477104 0.68446314
0.82960087 0.70002317 0.51211983 0.59617472
0.42610916 0.75153595 0.091976583 0.47788018
0.46342859 0.22334491 0.16171885 0.38383362
0.18113196 0.45066565 0.35648412 0.44955286
0.12657791 0.80795932 0.16951166 0.44199565
0.034325715 0.37126499 0.98143697 0.81758982
0.46841478 0.01048168 0.76425868 0.086625077
0.72138751 0.65620685 0.071781859 0.79430908
0.69181663 0.089776896 0.81404239 0.37554625
0.39260599 0.41763255 0.96017307 0.5378474
0.83104634 0.88282162 0.37759009 0.091844007
0.038337227 0.38634545 0.87388718 0.65192097
0.019739022 0.55642253 0.3061929 0.64037991
0.24754708 0.47836903 0.28951514 0.30309027
0.71832633 0.88497651 0.26933956 0.641038
0.71832889 0.86364806 0.57121193 0.59092557
0.26772046 0.010715693 0.25560224 0.5670591
0.085889041 0.34475696 0.21266401 0.83268011
0.74910629 0.27599075 0.43662247 0.17083932
0.40190923 0.23251273 0.10428637 1.2645688
0.19997816 0.61485958 0.91223544 1.1627266
0.49305168 0.24227159 0.53398311 0.33228892
0.86415482 0.90019751 0.67995948 0.19517967
0.070342936 0.60811025 0.79634643 0.49149397
0.049978215 0.011132849 0.87765801 1.8521379
0.51345271 0.78020954 0.44386366 0.49567121
0.96971995 0.64382946 0.87656528 1.0871404
0.1712638 0.16809155 0.60759205 0.0036000316
0.11780394 0.83661705 0.34348255 0.62347156
0.089051895 0.73662615 0.57672733 0.81146187
0.91551626 0.0075618392 0.079186507 1.3699979
0.47788262 0.088756733 0.8757782 0.19276936
0.92846811 0.97532165 0.91122514 0.81350809
0.56369007 0.8351838 0.7280376 0.21560852
0.60088885 0.60404021 0.65766799 0.44839537
0.80813134 0.17293066 0.92949861 0.5917145
0.9571318 0.34762499 0.36587748 0.47104967
0.24466267 0.94907278 0.26478559 0.63295603
0.66352904 0.59389049 0.68474257 0.37856501
0.0056792023 0.57610297 0.48013672 0.71512127
0.64916217 0.61472923 0.65976048 0.19903332
0.29852048 0.047994658 0.94554198 1.5070753
0.85483003 0.50820649 0.82157689 0.1751817
0.030213043 0.0061820676 0.91162175 0.52830833
0.04018987 0.5889942 0.33575115 0.072180443
0.55316293 0.32624659 0.59079862 0.047113501
0.98873836 0.53316158 0.37645176 0.50816631
0.36597648 0.96309233 0.32552716 0.47983241
0.49598688 0.40003076 0.55101103 0.1945549
0.66628814 0.64900517 0.55887604 0.55194122
0.41318673 0.75829178 0.63327223 0.74628669
0.33032796 0.57048649 0.71219689 0.25084624
0.43145528 0.47326219 0.29313996 0.38621697
0.76819372 0.80600989 0.97661823 1.1558391
0.0083161173 0.064707629 0.17066926 0.82855034
0.1460368 0.32992956 0.36692792 0.14285231
0.26052183 0.73502153 0.86073124 0.15162246
0.48772332 0.90757221 0.13116865 0.59579647
0.24445084 0.388203 0.99661231 0.65873194
0.30090198 0.50737584 0.32291237 0.43609592
0.99298221 0.0024953349 0.90793562 0.73063481
0.33635095 0.44784266 0.55571413 0.038411167
0.70297205 0.93044007 0.084730938 0.36458668
0.68490678 0.25987554 0.58412415 0.1402632
0.76317626 0.56552744 0.92925316 0.089728907
0.59505677 0.86407447 0.13153295 0.22627859
0.046311058 0.97013527 0.88342834 0.38820243
0.89140147 0.72408503 0.58185822 0.89312923
0.73234791 0.25055251 0.54655659 0.10353489
0.69633818 0.68618053 0.72817522 0.50750846
0.96995819 0.6034264 0.52166128 0.2373257
0.86611128 0.55169588 0.13424514 0.037362412
0.2971285 0.93088782 0.8204788 0.87893778
0.33219826 0.11792427 0.42687231 0.56440902
0.76609004 0.10449029 0.79391968 0.29710558
0.072857417 0.52450407 0.35469118 0.60174704
0.30067766 0.78250265 0.34907526 0.1951541
0.82645935 0.96309221 0.31693122 0.57881916
0.46532556 0.076610833 0.29643354 0.64803118
0.87393612 0.64414084 0.52904451 0.56378067
0.61062914 0.68512499 0.18413776 0.37135756
0.68847269 0.74559444 0.30206808 0.37154269
0.95937616 0.4120883 0.066349208 0.83285594
0.57132322 0.020906853 0.6580404 0.40970552
0.19356437 0.06089912 0.79008925 0.014366134
0.31254604 0.98787457 0.10375961 0.96732074
0.57323605 0.46079129 0.15739495 0.3927941
0.08764521 0.10745348 0.72060215 0.77585346
0.56308317 0.28523216 0.0063113533 0.11307206
0.21855649 0.2228508 0.31705394 0.013239391
0.14949259 0.30696383 0.27360576 0.49255046
0.60080099 0.1063066 0.67198443 0.69209969
0.37462136 0.34742394 0.76998526 0.17296726
0.2888611 0.28977203 0.23193143 1.1680059
0.9509213 0.45056024 0.49981084 1.0858222
0.57000375 0.63456827 0.80853587 0.013198709
0.95615882 0.64331716 0.031904794 0.2531459
0.91119021 0.76010835 0.017441459 0.57968485
0.91775262 0.34749049 0.19461803 1.0881071
0.22897792 0.83209038 0.33337617 0.97493392
0.064274311 0.085038416 0.14707936 0.8992126
0.44186407 0.40822974 0.26919955 0.053126279
0.92744917 0.41452807 0.96399027 0.34754148
0.26498172 0.1759405 0.35576761 0.098089762
0.95261562 0.79285192 0.79586262 0.76121444
0.91715693 0.45217204 0.0078684334 0.13036312
0.065597944 0.58281684 0.27539212 1.3470619
0.096772164 0.43383184 0.48489806 0.30558291
0.064401746 0.65334731 0.93237978 0.38410684
0.24463446 0.98893124 0.73913544 0.37965831
0.62339926 0.38598832 0.84144026 0.35410684
0.24479476 0.931436 0.85810328 0.62740195
0.3772907 0.36559269 0.93076652 0.30453795
0.59032542 0.83242017 0.40397799 0.42967072
0.86347997 0.86596322 0.3287515 0.017506009
0.6014697 0.75262731 0.27874905 0.19693139
0.29939175 0.34014288 0.64338648 0.40570584
0.082191214 0.67951608 0.28758398 0.46814173
0.19867311 0.95263469 0.42277113 0.34031543
0.87678146 0.67679685 0.50213927 0.71395063
0.31768706 0.36151934 0.76142263 0.33587146
0.74907178 0.86724782 0.6395213 0.071246676
0.23849595 0.30074111 0.12087546 0.31967363
0.292299 0.18558881 0.34104013 1.0310038
0.41866273 0.4618203 0.69085556 0.069923818
0.90719515 0.48459527 0.72871178 0.30061978
0.95804161 0.70159018 0.42231399 0.38604513
0.16503276 0.33497924 0.085825354 0.30254808
0.84074014 0.13901651 0.77054113 1.2606127
0.37542588 0.45314929 0.096719727 0.13944541
0.54005015 0.21676227 0.24107547 0.5649429
0.54716235 0.51183128 0.51872474 0.036490623
0.087912805 0.030230707 0.13537583 0.38719067
0.76668096 0.77776051 0.053565357 0.96630561
0.016760243 0.48403051 0.74353325 1.2395933
0.36419532 0.77875638 0.39721215 0.17914644
0.80962133 0.54371554 0.41093647 0.72754073
0.48727131 0.15977301 0.97898293 0.14859056
0.70952421 0.57505381 0.80111355 0.51216471
0.048782907 0.25617376 0.59412181 0.18221536
0.60418844 0.65277797 0.39728996 0.39990953
0.92391717 0.84554112 0.99974757 0.84749931
0.50592774 0.55744582 0.71861011 0.43268102
0.79951751 0.56873965 0.12575743 1.2469289
0.35711256 0.9773522 0.95697999 0.6436649
0.87020981 0.50468802 0.048566874 0.2902649
0.7963199 0.058442868 0.56269467 0.50120825
0.60251194 0.37395778 0.75817865 0.36095387
0.015959987 0.92231989 0.39586425 0.37122798
0.95293182 0.8929612 0.947846 0.79358339
0.61628312 0.34561267 0.87324721 0.49225557
0.067597553 0.85128659 0.27501848 0.18391164
0.92112964 0.10673206 0.70729578 1.6225077
0.26237205 0.32694903 0.87581152 0.35708526
0.8736214 0.84393173 0.093793638 1.4478552
0.12035813 0.82846713 0.7345224 0.92730248
0.015133006 0.44765154 0.40698427 0.17795534
0.72333431 0.46403667 0.42788866 0.33498216
0.46028194 0.85908997 0.65476304 0.4748998
0.58486104 0.15100481 0.39704821 0.58250725
0.73849857 0.99769276 0.99197823 0.75191462
0.22179939 0.95673895 0.73679811 0.99600089
0.29650626 0.53087962 0.22730881 0.15283929
0.62509751 0.47211686 0.23765609 0.096432485
0.39406082 0.20321453 0.59131974 0.08232829
0.15278322 0.46950865 0.011157539 0.93529493
0.060315806 0.4494161 0.46657073 0.12687108
0.54367507 0.90065187 0.75771886 0.1166325
0.70912039 0.70213205 0.20522797 0.19263676
0.065450996 0.1783352 0.65155047 0.55524087
0.1795816 0.79649842 0.40821901 0.45102707
0.75305563 0.92784649 0.78623992 0.20050664
0.24966379 0.82354897 0.43214703 0.24002731
0.87046975 0.91462249 0.9457106 0.8941434
0.77691835 0.94590902 0.65039974 0.040812157
0.7481997 0.098252341 0.48972738 0.26511055
0.3925443 0.46136811 0.48955303 0.13794667
0.26996925 0.59731275 0.26637232 0.68899137
0.10812972 0.43945497 0.15986639 0.40942764
0.30343005 0.62822968 0.54457539 0.30211818
0.60831314 0.17260072 0.21891525 0.54192054
0.1236307 0.35249826 0.070035353 0.086591408
0.012152188 0.20840935 0.95237321 0.39856672
0.70788634 0.65316719 0.15963249 0.060531158
0.66023731 0.20826668 0.58704793 1.3247055
0.37391007 0.45811287 0.71071231 0.15281288
0.76406819 0.41648924 0.13855553 0.43400922
0.078293286 0.24263528 0.038734652 0.36723781
0.59985352 0.49370733 0.061977796 0.023941291
0.80445313 0.35484731 0.51286763 0.25102621
0.10045341 0.5852676 0.70240259 0.8100614
0.26653373 0.3047758 0.40479192 0.014353875
0.17549832 0.74740207 0.83975852 0.55100816
0.60438687 0.40193635 0.71535575 0.19029285
0.49984407 0.17529483 0.99346811 0.51301241
0.94985402 0.58820111 0.89773941 0.19194168
0.037573032 0.56216049 0.23139125 0.46521363
0.39286739 0.70040148 0.16883381 0.23262396
0.90309024 0.20979254 0.33525544 0.25753942
0.1802415 0.3027415 0.57177448 0.034936212
0.96374738 0.94993204 0.2360497 0.84721494
0.48559946 0.74160337 0.2071716 0.19724573
0.22576389 0.55631036 0.35713372 0.056871247
0.68907171 0.86738956 0.44943631 0.18581429
0.86956155 0.40195873 0.79375744 0.19497962
0.52415919 0.29146275 0.23279026 0.29178324
0.99281937 0.8324272 0.068314962 0.53730881
0.98053783 0.97805965 0.97040415 1.4712253
0.049106978 0.39892453 0.85162824 0.070378557
0.81795776 0.63088971 0.47083774 0.11932775
0.89861238 0.20369045 0.23258346 0.74668151
0.082020871 0.84674448 0.50705254 0.21651977
0.47961918 0.90407437 0.74105036 1.2086086
0.37852293 0.68912476 0.17770761 0.532538
0.44017586 0.22466375 0.97316831 0.87655306
0.25674263 0.18972149 0.29186925 0.29078534
0.99951947 0.86144942 0.69866318 0.52265877
0.8413204 0.17607296 0.61945993 0.20265764
0.72364533 0.91891217 0.081447437 1.0661607
0.89117396 0.28755009 0.6838569 0.64779598
0.29875815 0.7512964 0.33761632 0.37422433
0.48309591 0.77017581 0.19767909 0.55369639
0.90778822 0.083619334 0.44994381 0.48261952
0.90826863 0.40385246 0.8419739 0.16726857
0.28515306 0.55708635 0.6499393 0.41497666
0.78193641 0.32720494 0.47856331 0.83082509
0.76375997 0.62945157 0.2762928 0.067634694
0.52162737 0.83837754 0.24049762 0.89976084
0.55859035 0.014766027 0.10261883 0.34004697
0.48656157 0.26427123 0.81721306 0.82495713
0.086623304 0.26757669 0.92227799 1.0250272
0.47191504 0.10766277 0.15418342 0.8752104
0.44112462 0.74231797 0.09175358 0.27121443
0.31972781 0.083198786 0.6920737 0.26049945
0.53847319 0.34884575 0.085741825 0.38128138
0.61751223 0.5527209 0.17734252 0.55995691
0.3659457 0.77088213 0.41223946 0.26874182
0.062691346 0.70955569 0.58470464 0.37723985
0.79625857 0.62325883 0.5820815 0.11332691
0.43357986 0.38233492 0.62779486 0.27395016
0.67620671 0.11790217 0.30228859 0.69819129
0.016334806 0.35859251 0.6439482 0.97550207
0.68332398 0.64263773 0.23628117 0.23100734
0.33484808 0.32642466 0.73383415 0.41745353
0.31661913 0.72295904 0.55516934 0.059789769
0.12605728 0.89301014 0.73823917 0.81162953
0.15771827 0.84187496 0.29209778 0.081592873
0.02166382 0.93824577 0.34315884 0.24389569
0.29293841 0.89969981 0.47662246 0.27248678
0.71961021 0.76295835 0.36167255 0.20728141
0.64781636 0.74051201 0.23188637 0.17676237
0.65085614 0.27694568 0.15319979 0.45452613
0.30876297 0.68316662 0.5311985 0.10871372
0.72556031 0.93563396 0.32468757 0.5824753
0.86460072 0.8821246 0.88856685 1.1234825
0.66352153 0.25221676 0.96357971 0.33914611
0.15394831 0.22160393 0.26039571 0.17341134
0.47421283 0.060837954 0.15166265 0.70489049
0.45556217 0.8963058 0.95970887 0.16521305
0.48428318 0.80391198 0.19828211 0.34283373
0.88697839 0.36955965 0.075991467 0.098608017
0.19154248 0.90505391 0.017974058 0.26133984
0.50126988 0.76146215 0.43817636 0.50418186
0.48915005 0.88007629 0.74119657 0.49111563
0.018994436 0.17614877 0.6643284 0.6801672
0.24130079 0.92123008 0.67665595 0.40173018
0.52636886 0.73533309 0.24685092 0.34832069
0.47623911 0.45096239 0.44102663 0.072883978
0.5105105 0.067729585 0.77630854 0.55562133
0.98864001 0.44356987 0.69094163 0.19826692
0.78200382 0.64051294 0.32348508 0.11499257
0.77052575 0.78568953 0.41275489 0.54940087
0.34467435 0.73255652 0.42977205 0.92720956
0.32296497 0.97662449 0.84589761 0.59076321
0.76866591 0.82844716 0.82282907 0.83328456
0.3278358 0.53638703 0.013997928 0.23687838
0.20929976 0.71827918 0.40478083 0.44995627
0.74255139 0.80296367 0.49219701 0.58472288
0.067083262 0.93498254 0.90266168 0.509152
0.025943378 0.30270833 0.76399046 0.13475288
0.6195792 0.89106292 0.49256536 0.28843251
0.5931468 0.16211207 0.35415861 0.81373465
0.14199971 0.96895307 0.15150836 1.2993414
0.21898022 0.24601701 0.47790611 0.29655483
0.16038923 0.29826045 0.31122643 0.31480435
0.75984871 0.80661821 0.45092332 0.15926592
0.63755149 0.65775222 0.50655335 0.21546102
0.46539822 0.50271291 0.71433312 0.37228969
0.84920794 0.004952088 0.20913604 0.35615423
0.075322345 0.22481014 0.16563176 0.67460793
0.1534681 0.45819178 0.15584815 0.12722208
0.69820607 0.3580575 0.68647903 0.48369139
0.4302583 0.18631537 0.32420382 0.1977005
0.3162792 0.81519824 0.28235674 0.90743661
0.10278994 0.544954 0.37854904 0.21916293
0.34086365 0.37849274 0.029116794 0.063472584
0.91137868 0.59182376 0.86810458 0.17356128
0.28034452 0.816643 0.38299775 0.49994856
0.84431994 0.37392259 0.30270854 0.52984464
0.078255922 0.44205189 0.50895905 0.20459288
0.73165047 0.26130614 0.016695999 1.0157293
0.072115049 0.18879755 0.0022946468 0.47205889
0.52502435 0.15190627 0.75651556 0.54456812
0.36601424 0.77810973 0.17852147 0.55717742
0.47107121 0.7603398 0.16682744 0.33752757
0.29550955 0.23874295 0.17308722 0.3614344
0.28787535 0.36898702 0.0096809166 0.52297145
0.34452131 0.42518839 0.71740401 0.26349187
0.7991491 0.25680637 0.87671113 0.39392012
0.3302815 0.22638406 0.82828158 0.52774727
0.64976788 0.39873645 0.86798984 0.84172463
0.831626 0.88876992 0.077942759 1.0918441
0.47320572 0.18591218 0.4564555 0.31202623
0.41355324 0.049571604 0.90144974 0.77775419
0.9356001 0.9197607 0.090546899 0.61847401
0.028489018 0.25156111 0.018260233 0.64851779
0.098918363 0.59046799 0.42834502 0.2797946
0.063722566 0.16954438 0.49120748 0.29658169
0.00065691397 0.84979784 0.66001356 0.60592508
0.58796036 0.35751602 0.6199441 0.18053105
0.41273502 0.63179433 0.99262244 0.34659898
0.41781667 0.48451743 0.89873904 0.22170356
0.86614954 0.88940662 0.087875336 0.84749401
0.79357553 0.9145171 0.6867972 0.42982137
0.092213519 0.26572898 0.98862725 0.4380542
0.30115083 0.40136421 0.45830762 0.12050269
0.43728456 0.43391722 0.87100458 0.50290656
0.58684397 0.32844514 0.35294196 0.28708154
0.24123672 0.77742833 0.36481318 0.62989342
0.47665331 0.15974495 0.17320162 0.91433227
0.64434242 0.13483751 0.48751503 0.18926966
0.07462696 0.69585747 0.9326331 1.0667441
0.8156184 0.75909114 0.11172994 0.18234073
0.078867242 0.17069393 0.191935 1.3252835
0.90520817 0.38722289 0.12743051 0.63752288
0.55669141 0.36026075 0.97137237 0.13932417
0.62343854 0.11293473 0.47957307 0.1415952
0.53612751 0.46892291 0.031273946 0.92625308
0.72753769 0.44804588 0.64951295 0.53566068
0.52161366 0.52265245 0.84983003 0.74485338
0.27517799 0.10768656 0.54191214 0.44561762
0.58418548 0.8386597 0.046787299 0.9672612
0.42055321 0.028629417 0.56403339 0.38790107
0.10997527 0.98928714 0.31325692 1.0326184
0.86392629 0.1213326 0.0039914045 0.65762132
0.53182727 0.46881178 0.15741438 0.46100649
0.014139495 0.93166393 0.7161305 0.21050556
0.66926801 0.54461944 0.063222647 0.30769187
0.52925515 0.11036809 0.075639464 0.75155622
0.34766257 0.95167935 0.25692919 1.276744
0.47256336 0.38123935 0.51017135 0.087645456
0.75581223 0.48536864 0.72979015 0.37680811
0.56752259 0.50155044 0.34604448 0.20516732
0.27765995 0.53311777 0.8497569 0.52058703
0.21918486 0.61002451 0.68642843 0.70074487
0.83761007 0.1215604 0.13491008 0.61532009
0.38889635 0.61114073 0.90234357 0.15656474
0.48383221 0.17901713 0.34184483 0.10780644
0.79110235 0.275408 0.84715104 0.56223536
0.19440545 0.66324264 0.44546592 0.065397233
0.27668482 0.24353084 0.051469751 0.85365415
0.60002476 0.72276521 0.048768882 0.98549813
0.24819875 0.79115236 0.51895905 0.5104987
0.43980083 0.33450654 0.053640295 0.074518241
0.4299103 0.24954015 0.99057484 0.42276525
0.83820683 0.56291842 0.25611082 0.14505579
0.30914268 0.83385205 0.30665815 0.58917612
0.65970653 0.028975226 0.80802482 0.52431035
0.24931981 0.95377833 0.82662678 1.1426659
0.055155709 0.50522977 0.76725709 0.33731493
0.97260511 0.1966898 0.9290356 0.87230909
0.44771558 0.52301633 0.76100284 0.1065735
0.99427599 0.81214619 0.93681771 1.161956
0.017639467 0.72817755 0.71200258 0.94579679
0.61289406 0.66957074 0.25411865 0.54614943
0.47438037 0.1313664 0.40021357 0.33613682
0.042236965 0.5959729 0.92178726 0.44367808
0.046240773 0.13888887 0.24590862 0.69603312
0.95298725 0.5764119 0.15877874 0.065572523
0.91635746 0.34421027 0.79844224 0.29373842
0.91525096 0.29073811 0.38172066 0.88255417
0.81298703 0.47161418 0.63620669 0.34848154
0.78477192 0.37290537 0.72534794 0.71227658
0.07463713 0.34387043 0.4678219 0.32971942
0.068463601 0.082392029 0.31217253 0.34097785
0.25847992 0.60292017 0.034129892 1.0002036
0.11593511 0.076564714 0.27527818 1.2687907
0.28586042 0.95775157 0.39321157 0.79477477
0.73654824 0.28237617 0.37655041 0.38383278
0.12058519 0.54992062 0.8929159 0.6858077
0.011434021 0.18742926 0.86750609 0.72217083
0.31513867 0.80865556 0.55534917 0.76098669
0.30022463 0.22713196 0.87490475 0.63392723
0.12939268 0.33362621 0.93262237 0.28578833
0.43942204 0.40764433 0.39753741 0.32086456
0.14076485 0.16955088 0.83270794 0.19238065
0.70129943 0.76142102 0.91335863 0.2389555
0.17159806 0.53801304 0.80842543 0.59886461
0.38513571 0.30093193 0.57669079 0.19200934
0.24188657 0.94202715 0.85436332 0.71777177
0.79690367 0.20849778 0.62701815 0.55492908
0.11918004 0.62147009 0.92964476 0.82458407
0.28831065 0.2085468 0.079399481 0.19604544
0.70351779 0.10542193 0.56639051 0.5641318
0.96995288 0.5085637 0.77182013 0.54241675
0.7252081 0.96522129 0.69611955 0.56269407
0.37794125 0.17284918 0.85338676 0.66509283
0.084684454 0.58269614 0.039460905 0.73570371
0.73260474 0.76994985 0.52088648 0.63737178
0.15900873 0.2304865 0.59313095 0.50834465
0.39752474 0.56581044 0.32411116 0.49077237
0.93814617 0.29250753 0.39673409 0.46367377
0.17802116 0.56393403 0.73960972 0.15454079
0.71428406 0.20050721 0.25950792 0.52626812
0.73795021 0.54285789 0.13802917 0.070466325
0.25185043 0.11903007 0.27012619 0.27339554
0.1727497 0.15684222 0.24908213 0.6152187
0.76856071 0.92770559 0.13461618 0.90147829
0.43613717 0.60630602 0.68579054 0.2616019
0.078682423 0.39338079 0.89326316 1.4196191
0.21423019 0.651627 0.042265896 0.37174344
0.01868909 0.61334628 0.16428991 0.8376314
0.40353194 0.0050785886 0.9305355 0.073169157
0.22073515 0.41435298 0.24661392 0.26315364
0.23228316 0.50340366 0.82239032 0.69526106
0.16383034 0.36171958 0.064864591 1.1664091
0.2578553 0.036753554 0.20817678 0.46461564
0.99944204 0.91329312 0.38030073 0.96451718
0.84265816 0.43449596 0.55260682 0.055471823
0.22830752 0.62926459 0.83116817 0.44544798
0.90381634 0.88122624 0.8428213 1.3986599
0.19610003 0.79940242 0.82801765 0.053547665
0.77055514 0.70820552 0.16042651 0.23904
0.28884673 0.70749545 0.71996856 0.24609122
0.032801323 0.014161427 0.80793655 0.57784605
0.22668959 0.050167896 0.69710273 0.76805484
0.57014316 0.40322933 0.30967581 0.54480666
0.76082474 0.90179604 0.76160216 0.16523372
0.68276113 0.78234041 0.81789368 0.59622818
0.62128806 0.27844778 0.44518778 0.38987499
0.63287961 0.069630727 0.9304294 1.2863448
0.32635191 0.29636279 0.13193573 0.42239684
0.33645475 0.75880414 0.048175886 1.3483493
0.4313823 0.3263365 0.7114138 0.13669947
0.40009519 0.26994634 0.99905396 0.47685379
0.58854914 0.17600366 0.39167982 0.17544726
0.95527309 0.084381521 0.47882465 0.97549725
0.19304539 0.64159411 0.41372198 0.19116499
0.52294582 0.32377645 0.42521504 0.32954669
0.52529949 0.83211511 0.75051451 0.44349605
0.0089061987 0.22198386 0.36411518 0.46844891
0.17445043 0.07286074 0.81995779 1.0419017
0.90117282 0.27841517 0.84806991 0.87870628
0.98911577 0.42239749 0.41436028 0.53082377
0.46686921 0.26871791 0.14856818 0.99365634
0.52333415 0.26499492 0.34008011 0.2128101
0.60018897 0.37488523 0.038432784 0.15986796
0.079603955 0.5516057 0.80267543 0.10594067
0.078509934 0.59456325 0.19735147 1.3817575
0.20248412 0.37571293 0.13302526 0.42141533
0.52446759 0.68820924 0.19395781 0.047098011
0.081634402 0.94576091 0.39093077 0.57423133
0.29732928 0.52417773 0.91921198 0.55246276
0.63220781 0.67939949 0.47481254 0.038137153
0.38404629 0.45672196 0.56119889 0.28395581
0.1412698 0.78470016 0.075347438 0.96190059
0.28730708 0.087988399 0.023230571 0.23088907
0.47760621 0.56156504 0.048512105 0.3371729
0.2843222 0.36027431 0.59808248 0.42507032
0.35930058 0.82213259 0.94545305 0.24507806
0.68489981 0.51088071 0.28916642 0.39235783
0.68268549 0.82334787 0.7572794 0.96904039
0.023153866 0.3009156 0.57541156 0.44822758
0.5292899 0.77774668 0.14374325 0.80053341
0.83479929 0.54499888 0.63594329 0.27631947
0.15360318 0.50670159 0.92883748 0.73281056
0.32234216 0.40775728 0.74770677 0.2884874
0.19347449 0.55194592 0.69606477 0.36365762
0.38259563 0.56753033 0.9538821 0.41401315
0.3091988 0.26043263 0.91501683 0.079826191
0.51857728 0.62452728 0.49557638 0.015087927
0.88678783 0.003893198 0.33620539 1.0833875
0.96438724 0.89731157 0.70910788 0.45911351
0.51184678 0.9735626 0.64535028 0.47054604
0.58410162 0.67796415 0.85210305 0.17815346
0.90528405 0.58511603 0.33663049 0.30451074
0.59384763 0.66542423 0.29034221 0.2872107
0.22669694 0.70994765 0.27401021 0.098531261
0.077413462 0.34577408 0.059272889 0.82590222
0.76680499 0.84538895 0.88580298 0.89090914
0.10684513 0.17746061 0.72190577 0.30430934
0.90577304 0.61606991 0.012677465 0.25889301
0.036631901 0.7183851 0.74533868 0.062408224
0.91569793 0.21758178 0.3293415 0.67974573
0.97617882 0.20426361 0.058592498 0.37845099
0.078125909 0.34114176 0.7293219 0.77472049
0.67341685 0.64630657 0.26015502 0.43985018
0.079507187 0.38740015 0.81329316 0.10276939
0.15606803 0.07510148 0.51603943 0.76384491
0.029861897 0.012370485 0.19520383 0.97952622
0.88411999 0.20561565 0.95008981 0.62438381
0.71436298 0.76374096 0.94130445 0.060814906
0.90583926 0.015175353 0.83306795 1.259419
0.31911308 0.50140601 0.57054633 0.49616808
0.053662881 0.94054455 0.51855481 1.3606231
0.52982914 0.098624378 0.017257992 0.073322847
0.56098008 0.87798202 0.20126379 0.39083722
0.86559159 0.093111292 0.48010102 0.74608773
0.0076567344 0.075004824 0.33121544 0.3985568
0.78213686 0.55017358 0.82201111 0.70180172
0.40641883 0.30144182 0.15809235 0.81651127
0.41582566 0.95059681 0.78128856 0.34788984
0.55329508 0.46709839 0.52426893 0.24969108
0.79087055 0.44167316 0.73772097 0.13047868
0.97947866 0.42121965 0.51239717 0.21699177
0.93758726 0.31419355 0.78086472 0.28319454
0.40402791 0.17284916 0.82057881 1.1850019
0.76968336 0.3608022 0.79294181 0.39774004
0.65803105 0.62084323 0.17558786 0.28668848
0.95054382 0.5064581 0.30565596 0.15491357
0.91201061 0.33039668 0.23554087 0.61326361
0.11200342 0.87941498 0.57853138 0.85154867
0.4643876 0.16302885 0.95150506 0.23795786
0.062954076 0.46755394 0.96881253 1.0733428
0.66527903 0.77813768 0.58417326 0.32549599
0.39590421 0.30363956 0.84494877 0.17895731
0.049721785 0.60839093 0.58784467 0.37660441
0.052391421 0.33687964 0.38966346 0.4199352
0.12656946 0.059964824 0.66022992 1.0620755
0.91616136 0.68076253 0.96886677 0.79716671
0.5841471 0.0030597462 0.22120807 0.19996843
0.47678414 0.007423413 0.41711912 0.21501483
0.22837235 0.48195469 0.98942775 0.94869196
0.95882589 0.31300572 0.16223174 0.19725175
0.17219605 0.65271366 0.50684619 0.41922837
0.13971218 0.69448626 0.19190557 0.53068089
0.96847177 0.258549 0.62524647 0.14595564
0.34832284 0.014435112 0.38051239 0.13714847
0.55992842 0.70366699 0.13098936 0.72463489
0.35402966 0.54608524 0.12559047 0.46533859
0.52110636 0.3697921 0.17018089 0.2337001
0.57000005 0.078698397 0.52268797 0.56046283
0.70662409 0.5092997 0.60335279 0.12933485
0.66995484 0.67029053 0.61684978 0.71085489
0.80574381 0.931014 0.84016687 0.89889133
0.24511243 0.8348974 0.5957669 0.26698413
0.056870263 0.98831052 0.85310453 1.2011596
0.61759388 0.41967803 0.42517227 0.10613838
0.96073538 0.090122916 0.40661681 0.1312307
0.23979305 0.9230175 0.069931865 0.42819589
0.27364582 0.41512373 0.34268788 0.39695349
0.83344805 0.012675091 0.6013037 1.0192566
0.40313634 0.90489328 0.013721432 0.70625305
0.37361848 0.54186934 0.14104009 0.12672411
0.37732065 0.8825956 0.30828139 0.58290172
0.97791409 0.7071324 0.7524755 1.1157156
0.016373448 0.96429741 0.54837364 1.050464
0.16388215 0.093478538 0.45513624 0.44825822
0.42116275 0.093245983 0.10381766 0.94710433
0.50472093 0.72286588 0.47993544 0.14710197
0.55315286 0.16449143 0.62109154 0.83378446
0.28957126 0.99992144 0.6891219 0.27264762
0.14697003 0.4116312 0.37402904 0.055024076
0.18334253 0.39774585 0.054510992 0.25293598
0.026400967 0.6241563 0.86331385 0.59406257
0.65230548 0.69744658 0.91705281 0.67285299
0.11560969 0.45208758 0.19996475 0.11063389
0.50642776 0.36981666 0.95925415 0.093443386
0.24661793 0.88981265 0.54319686 1.1432755
0.4361904 0.45583999 0.41520107 0.31111819
0.30243674 0.61199307 0.15345098 0.33263534
0.025843771 0.01890168 0.48466486 0.17803536
0.79154968 0.66323811 0.66754812 0.35753202
0.012251819 0.12082769 0.81870043 1.0276269
0.92050284 0.27916637 0.28719953 0.36572653
0.2484089 0.58089429 0.43072289 0.18997982
0.91699743 0.26373085 0.060481239 0.60131931
0.77198458 0.74581796 0.71457672 0.082243338
0.98919004 0.15308852 0.72516549 1.3382574
0.87939745 0.26325387 0.82243896 0.47235802
0.0073798876 0.35281724 0.55504143 0.10605337
0.10809832 0.81629092 0.16094592 1.078253
0.56594443 0.36089024 0.91701865 0.058195375
0.37447593 0.66759264 0.46105838 0.4618206
0.1056112 0.5274843 0.48051253 0.86369812
0.99286681 0.57145554 0.35591072 0.27706832
0.012903248 0.62868762 0.4797855 0.53767604
0.0020708283 0.0088795852 0.074776486 0.3320151
0.28810084 0.12315944 0.13905604 0.38162234
0.93092841 0.043343823 0.83781213 0.49305081
0.27795473 0.84629172 0.57043803 1.0601463
0.14271632 0.56317997 0.38591343 0.46212918
0.64304543 0.28903046 0.066795453 1.1690478
0.048865296 0.8238399 0.1550577 1.266834
0.24023141 0.77841008 0.74334168 0.45629105
0.98029083 0.84782243 0.10599642 0.61994797
0.19767085 0.64816958 0.54337585 0.047142006
0.21425845 0.079625942 0.74317044 0.26328954
0.50077677 0.26133427 0.34677264 0.50300205
0.42449939 0.55407798 0.1322729 0.52685183
0.88412833 0.94633418 0.69359159 1.6318977
0.13723347 0.72428656 0.081793003 0.7602427
0.73453832 0.18813732 0.80044657 0.67829931
0.061091121 0.80655813 0.93493909 1.2583266
0.89133108 0.08143986 0.40056822 0.18699743
0.71453327 0.21522382 0.60581088 0.30198237
0.48664975 0.10570799 0.77664471 0.67044878
0.40115583 0.35586885 0.74775523 0.25794581
0.79615963 0.083822533 0.21854044 0.098635361
0.69910961 0.13046402 0.79318964 0.3924782
0.26626855 0.83504272 0.9848941 0.80833149
0.72278166 0.42501274 0.36928818 0.26245627
0.88888311 0.024745231 0.78381622 0.19618906
0.76687813 0.86494738 0.72576898 0.27099025
0.62575847 0.66689426 0.71550328 0.71208459
0.050557137 0.099990554 0.65736401 0.79475796
0.39165756 0.43039829 0.58566999 0.17112777
0.92234117 0.57681221 0.95968741 0.24235794
0.45177889 0.45793542 0.47368741 0.17680065
0.54771507 0.27210093 0.84904385 0.059576474
0.30774015 0.094156809 0.09776257 0.70309693
0.94808573 0.25280771 0.97116661 0.66425467
0.36841905 0.16300774 0.59703541 0.17738035
0.44282281 0.27951863 0.039505135 0.91183603
0.7664088 0.43122673 0.059731979 0.99037302
0.71400523 0.90577877 0.98570138 0.47242364
0.011624432 0.052579988 0.65505755 1.1399738
0.95598215 0.38263577 0.4712131 0.86598551
0.79488999 0.37212199 0.84186876 0.1789877
0.88953584 0.57407361 0.10777775 0.17628442
0.51218426 0.42031398 0.51688248 0.078664273
0.81546712 0.38884896 0.093594402 0.34939682
0.90733373 0.69326812 0.96250796 0.41221601
0.46194759 0.6322217 0.072411023 0.2778025
0.31986043 0.25978172 0.56399488 0.4679971
0.17998047 0.74117136 0.60064375 0.48749119
0.20022231 0.4181352 0.83952051 0.18030569
0.86722451 0.91991615 0.86036688 0.69456309
0.031870522 0.9584319 0.83296651 0.37650687
0.015835885 0.60578001 0.44961268 0.16753054
0.28291932 0.57042962 0.94871974 0.64212394
0.37519836 0.85623574 0.45637646 0.19165063
0.41804817 0.49792302 0.76637477 0.50399393
0.63598156 0.22031346 0.75607795 0.043174796
0.70331854 0.16616008 0.92170244 0.1134088
0.97043598 0.93527102 0.49916154 0.98085105
0.75119644 0.094076507 0.67713994 0.095186099
0.98109901 0.34852603 0.97165346 0.62935227
0.84330297 0.57540822 0.95388347 0.70779967
0.47901097 0.59197956 0.59430504 0.29370913
0.22798681 0.38658237 0.28762007 0.40098783
0.63513654 0.53898937 0.83708131 0.22961359
0.14981709 0.10837992 0.26549476 0.82407212
0.62834716 0.50792682 0.1770775 0.39290646
0.50870073 0.34717622 0.51998264 0.22808656
0.057076719 0.88348448 0.4381353 1.1209164
0.52315468 0.13457121 0.25885856 0.59222305
0.90721726 0.96378452 0.48540819 0.34525576
0.70980358 0.48729548 0.46915522 0.57308942
0.30508599 0.35816464 0.53516412 0.19973686
0.09705089 0.7618379 0.58000273 0.60335934
0.2004693 0.37415361 0.080936663 0.23407364
0.953704 0.91051704 0.20637603 0.69799232
0.92853773 0.40814605 0.52337331 0.33793658
0.31814241 0.16545253 0.63648152 0.10627202
0.21810183 0.46419173 0.44673944 0.43517235
0.55583555 0.2300352 0.19801375 0.4525955
0.46924597 0.22310977 0.34409001 0.33456275
0.93998736 0.55475521 0.080529876 0.9072814
0.0064908233 0.16340186 0.7132256 0.99979204
0.53610009 0.63042849 0.21086928 0.21225515
0.26205394 0.36380666 0.4555265 0.18026072
0.94313365 0.28677994 0.23839048 0.8371855
0.98667848 0.13551535 0.91022193 0.27998084
0.14275482 0.79514247 0.704422 0.37977764
0.71351087 0.31739986 0.95414084 1.5891714
0.14415759 0.63104528 0.70157391 0.32546166
0.73131293 0.22661135 0.84167963 0.14518023
0.34297049 0.94673365 0.74331826 1.0756811
0.30948251 0.53428847 0.6462754 0.074123949
0.40426564 0.41667467 0.25183785 0.25088593
0.10452121 0.11780322 0.54152393 0.51177293
0.4915289 0.71007162 0.60273033 0.36579809
0.43919823 0.021279452 0.30517203 0.47881848
0.11325129 0.42824239 0.75551128 0.527403
0.84479374 0.20465033 0.12104839 0.10647031
0.924972 0.85859764 0.68447614 1.0734617
0.19816463 0.30896798 0.37810561 0.072180554
0.54574889 0.36181834 0.11022592 0.62864798
0.068272471 0.84019732 0.3788228 0.59164357
0.0060059843 0.74582475 0.81390142 0.75328201
0.84345311 0.30563369 0.9825334 0.12388938
0.22270793 0.9714061 0.43294954 0.17915629
0.63912606 0.70315844 0.90450883 0.60392284
0.9250887 0.092520609 0.94720149 1.7878543
0.65755731 0.74567604 0.97320831 0.48618156
0.49564224 0.59741133 0.85275149 0.34886491
0.248367 0.74415749 0.39757308 0.49396691
0.054624777 0.60611784 0.61852187 0.058103256
0.6417734 0.2161146 0.63260382 0.24438556
0.75976604 0.93774176 0.91267449 0.37239498
0.60942817 0.85623777 0.1271652 0.096954823
0.30403298 0.31064895 0.90134919 0.6299333
0.77827626 0.25759289 0.50120556 0.48443788
0.27125633 0.48575178 0.54184467 0.45336547
0.67130846 0.90787905 0.10174426 0.26604345
0.35989496 0.42460316 0.50710702 0.1102656
0.63811576 0.42352811 0.77688879 0.24315144
0.75689828 0.48105007 0.23266725 0.25921443
0.9386434 0.84539217 0.58277822 0.21323489
0.40157974 0.89580357 0.053982284 1.3787557
0.138814 0.54550046 0.29686964 0.72538024
0.31661642 0.17444846 0.6529758 1.1413952
0.20613401 0.63692945 0.25094068 0.14543381
0.62837851 0.57540262 0.45578429 0.20457326
0.5391708 0.63180315 0.70388728 0.13722758
0.96692824 0.65900022 0.16800976 0.058460455
0.60797393 0.78146207 0.97080201 0.52004886
0.14839734 0.81752455 0.56783432 0.25509733
0.21462804 0.0044398834 0.82550859 0.83554536
0.20541435 0.16619332 0.2195102 0.45276153
0.33113134 0.34636724 0.72839707 0.42649862
0.81143314 0.52661252 0.1314425 1.1125932
0.63161695 0.083498195 0.65520608 0.46134919
0.23888694 0.92100096 0.29941636 1.1812949
0.32543191 0.077834472 0.46378559 0.47020084
0.70947731 0.85966057 0.72876418 0.14439924
0.62180769 0.74377143 0.86529166 0.42657226
0.63838869 0.28651446 0.3834779 0.20082982
0.35135621 0.70829511 0.36843336 0.56350958
0.87927419 0.9051109 0.34171408 0.75487864
0.13466364 0.53932393 0.053138591 0.6887629
0.12909064 0.32590342 0.014379198 0.44163316
0.19281274 0.92938566 0.65981537 0.68710065
0.58430046 0.86732507 0.21047132 0.070068225
0.62285966 0.3954775 0.87133312 0.16011584
0.42312106 0.45289916 0.95557135 0.36682057
0.59339404 0.35952681 0.0291459 1.0585575
0.49835917 0.19019577 0.88591933 0.62367392
0.58896697 0.57053614 0.41393796 0.16227517
0.47892216 0.45829311 0.10752522 0.39632133
0.065449201 0.46823975 0.82642174 1.1071235
0.39129177 0.67566425 0.07866168 0.0090042828
0.12114808 0.10467581 0.81004769 0.65222776
0.089764714 0.090570085 0.38302812 0.33030069
0.8828969 0.037709452 0.7497943 0.7948004
0.74266922 0.81218624 0.60715061 0.48368147
0.012049528 0.93599182 0.76472241 0.17729776
0.68252051 0.95796984 0.81546628 0.74241209
0.88918132 0.554407 0.33578086 0.13487394
0.18096699 0.44730794 0.4494628 0.062412322
0.88492095 0.45177728 0.84426123 1.1415033
0.16418411 0.24526571 0.23305747 0.32507938
0.71082556 0.30603445 0.51627189 0.65618259
0.91044939 0.42481831 0.76853365 0.23832674
0.50045848 0.40009594 0.98981506 0.51239794
0.55933571 0.61054975 0.52298635 0.20785697
0.756486 0.60770881 0.47426975 0.19358411
0.16620728 0.0091041448 0.50313705 1.0073791
0.84739113 0.15781704 0.061188877 1.5777849
0.50297487 0.54944468 0.27484855 0.38849384
0.92699653 0.2187462 0.94322723 0.49314415
0.77135402 0.94774318 0.84242976 0.11678787
0.86307573 0.3261551 0.2351926 0.17074175
0.82278025 0.16616142 0.99180806 0.22783412
0.0027201315 0.97427255 0.85065621 1.0939451
0.11194403 0.14077868 0.71832037 0.25868773
0.7478323 0.46228784 0.66616446 0.15299293
0.89042723 0.17973962 0.78793418 1.0250378
0.21942522 0.68977648 0.75733227 0.12026512
0.93460149 0.35210297 0.62898326 0.38645771
0.20897995 0.059241407 0.69116372 0.89405537
0.56178498 0.34546727 0.18400699 0.48551628
0.5900178 0.058195442 0.6167568 0.51564753
0.094920307 0.072539903 0.36197603 0.35245296
0.15220942 0.60170072 0.72161311 0.050626583
0.97463459 0.71727514 0.54729217 1.0769799
0.79726654 0.29853815 0.69073302 0.12940206
0.86100179 0.67262554 0.450212 0.50497139
0.036933541 0.31241742 0.83669901 0.54002786
0.3787021 0.25653884 0.93047088 0.79634243
0.30620939 0.40485549 0.2125117 0.89597678
0.21612036 0.77127033 0.18944214 0.53241199
0.30211055 0.1641394 0.21088785 0.51521921
0.77325773 0.7918098 0.20549029 0.5956068
0.49859366 0.96491891 0.67749763 0.4537946
0.72440475 0.46451059 0.027274262 0.60073292
0.17167501 0.74086601 0.60945976 0.010507652
0.92762721 0.71076059 0.80534631 0.28285995
0.053562347 0.046322644 0.22472166 0.89194489
0.14136118 0.239209 0.23870169 0.63462847
0.65943313 0.41571152 0.19294164 0.54940093
0.5730238 0.39582491 0.70862383 0.65008616
0.92564243 0.54693633 0.33631101 0.63706845
0.51232409 0.79131401 0.66895878 0.24371034
0.46291551 0.10034169 0.26617751 0.24639206
0.50294787 0.79100144 0.85486615 0.028562957
0.82466215 0.030560989 0.86526674 1.079747
0.84678119 0.1305511 0.58503729 0.33275717
0.33863419 0.61104244 0.3531251 0.4610157
0.96200848 0.22864369 0.71152723 1.1052766
0.68424374 0.095568463 0.32128665 0.052600306
0.75398737 0.72323269 0.16129699 0.45133227
0.79275596 0.512164 0.78742737 0.45253295
0.24096012 0.64317358 0.99396276 0.6442821
0.27204672 0.19405106 0.66206169 0.66385663
0.6350283 0.42407289 0.99014747 0.23990884
0.71236318 0.22385757 0.0090838922 1.4130633
0.69030148 0.48099688 0.5229196 0.73997861
0.16032825 0.027498685 0.67307371 0.90794802
0.84900093 0.6126349 0.63244778 0.17974308
0.22768858 0.65697396 0.3623713 0.48553956
0.91409332 0.67345834 0.90491521 0.36167476
0.48292455 0.95681775 0.12553811 0.51028287
0.73451895 0.53784144 0.79779518 0.47007316
0.66080528 0.36612213 0.71915299 0.25230414
0.86510712 0.33796626 0.54458076 0.13978502
0.50937146 0.8546713 0.25312144 0.45665112
0.72324413 0.37942502 0.77427012 0.020665988
0.81314784 0.29990456 0.43381464 0.51218891
0.397515 0.63695747 0.51647669 0.1099083
0.18731523 0.540452 0.14725918 0.56693935
0.64545935 0.22245702 0.49888897 0.046363514
0.97254741 0.10630339 0.42276219 0.61881888
0.33598545 0.02534505 0.33970204 0.13650003
0.26367992 0.68618983 0.19417079 0.63351953
0.49152777 0.92104554 0.082368694 0.56347013
0.046794973 0.49871689 0.44391912 0.8035844
0.97294229 0.28335229 0.45168516 0.83037883
0.7622382 0.052589957 0.016197916 0.74851274
0.95831257 0.99889618 0.6754421 0.90749419
0.63070476 0.17157604 0.89031732 0.69476688
0.97691703 0.35805133 0.8908875 0.63993114
0.5779435 0.54197222 0.3835223 0.011853252
0.96253377 0.27524516 0.86658067 0.14417534
0.17001493 0.046092264 0.26992294 0.045917653
0.33718136 0.34209216 0.53820688 0.2956191
0.86239445 0.31231073 0.3152456 1.2752581
0.22807437 0.11458845 0.10556168 0.8345468
0.99062276 0.20560113 0.45719153 1.2661113
0.071298942 0.60415739 0.058676478 0.45888847
0.52490443 0.65581727 0.65689075 0.42218274
0.79816854 0.4186787 0.41018838 0.68910044
0.5733676 0.21889535 0.85597306 1.1302204
0.92308766 0.9311592 0.87354243 0.14046259
0.93246377 0.29859167 0.5752449 1.1882315
0.77895212 0.46472394 0.020711923 0.34163162
0.50255066 0.93446851 0.71563983 0.6314013
0.71834838 0.67632252 0.86396599 0.098935813
0.800403 0.12407448 0.94576985 1.237057
0.5779134 0.8301639 0.98821855 0.23161133
0.87278944 0.79971021 0.94051772 0.72917104
0.30395797 0.12803322 0.7784425 0.77645212
0.10479318 0.99034232 0.99076992 1.2157453
0.93260723 0.080458209 0.078894213 0.20057227
0.73804706 0.87716514 0.45977607 0.04422411
0.044424623 0.8804372 0.51672488 0.86802101
0.59565324 0.3338545 0.59834188 0.43844086
0.99857706 0.41348338 0.93539703 0.83249187
0.59001863 0.846793 0.85524899 0.21454799
0.94620323 0.89179641 0.26840267 1.2719405
0.44848013 0.13718642 0.76466149 0.53771836
0.62598246 0.44290617 0.19461928 0.59340274
0.93323582 0.96896493 0.46885893 0.84029734
0.67409462 0.25463066 0.14167301 0.61356896
0.37020218 0.14284042 0.58169043 0.48052448
0.8312968 0.46467766 0.63685906 0.45482591
0.02720426 0.61236286 0.79587549 0.75579464
0.22721076 0.88399506 0.82056284 0.64415455
0.1710764 0.6489501 0.41918716 0.40016273
0.79136795 0.64623177 0.17488524 0.64567965
0.3004556 0.46265185 0.18314537 0.44603598
0.97359365 0.078688286 0.98204392 0.89458472
0.87165827 0.82591921 0.60071135 0.56745529
0.14147411 0.56242669 0.58858722 0.33316725
0.83463216 0.43254438 0.88410145 0.76430678
0.52829975 0.19278282 0.04469984 0.84783101
0.64330631 0.76655293 0.01674765 1.0541828
0.873074 0.87128299 0.29829574 0.1201967
0.83745193 0.86728567 0.25202554 0.1793869
0.62909931 0.18318461 0.16742621 0.74533629
0.034066226 0.95923012 0.67325199 0.21077578
0.41715953 0.881558 0.61312419 1.030484
0.92847377 0.62371451 0.090257779 0.65384984
0.30771586 0.57968533 0.67420667 0.52504814
0.70241648 0.28149283 0.50311464 0.050123286
0.51513898 0.29542828 0.31376991 0.33279747
0.51555067 0.50776654 0.67921948 0.042693406
0.85668635 0.68696547 0.35697562 0.62822199
0.14458893 0.71286708 0.26077554 0.41544393
0.68124461 0.13859846 0.80611014 0.72852349
0.55839777 0.53697419 0.014272577 0.29230273
0.22330552 0.98888838 0.32558012 0.19778749
0.85516971 0.12779851 0.1163222 0.54870313
0.74484992 0.071743712 0.18791819 0.67830592
0.15602355 0.30581096 0.14088359 0.19690275
0.45237043 0.24066044 0.048372217 0.082477622
0.73449492 0.51894897 0.70808601 0.1267015
0.62801123 0.34427702 0.6922124 0.47030813
0.40855911 0.85300374 0.81040901 0.44699663
0.43236557 0.24390192 0.29004249 0.076658897
0.51788712 0.40498012 0.39537647 0.38364443
0.26730841 0.47954592 0.45942104 0.54821843
0.60591388 0.60431391 0.51397723 0.49145812
0.97592688 0.55003887 0.68864393 0.78510165
0.78629804 0.81068647 0.078502744 0.43794739
0.2266311 0.61617821 0.13935451 0.54644465
0.72780389 0.56921107 0.98972392 0.63361818
0.25464869 0.17148142 0.78653675 0.63607866
0.61256063 0.46112612 0.39629757 0.16651306
0.82070702 0.47277993 0.33944187 0.14092052
0.31089827 0.77213794 0.39275381 0.86327821
0.58225745 0.41669294 0.33477443 0.22852579
0.93093973 0.20936193 0.64334339 0.5949229
0.56188071 0.054337244 0.13478976 0.7698794
0.59615844 0.51387268 0.34759724 0.07383246
0.83369875 0.036044985 0.43175834 0.67786813
0.4591957 0.038393013 0.66944289 0.17824973
0.62075216 0.027245197 0.76623905 0.76846814
0.48434579 0.23677796 0.96921152 0.43025953
0.211394 0.87263358 0.79574376 0.30373216
0.40885037 0.38104868 0.073020883 0.21764757
0.32056591 0.13855603 0.78317869 0.12448729
0.96288908 0.94285744 0.31335944 0.8919794
0.5018875 0.87591618 0.74101186 0.049619157
0.62137038 0.73401535 0.12353864 0.54675239
0.39850676 0.69875336 0.7592659 0.12403829
0.29640776 0.65362954 0.85810715 0.35811478
0.16405848 0.2722303 0.60477573 0.006121858
0.96734893 0.03031943 0.38285798 0.28124112
0.98436683 0.24600355 0.69259214 1.4376853
0.60501748 0.83570111 0.35276079 0.13909191
0.19728215 0.30497861 0.60430479 0.56258994
0.36397097 0.24088769 0.27455539 0.25479892
0.7379595 0.53319252 0.95589936 0.62298685
0.52166539 0.18654524 0.33155149 0.25680611
0.42781767 0.023938959 0.0082719941 1.3136563
0.074117079 0.27793011 0.85652566 0.7991699
0.77555293 0.45852506 0.3668505 0.085214891
0.36409995 0.6043275 0.89761531 0.54119074
0.27312419 0.99756438 0.027031658 0.85123932
0.48659143 0.34628195 0.96670753 0.60780817
0.81060785 0.090368643 0.97269726 0.78922367
0.36088616 0.85515261 0.77321374 0.21196532
0.75686538 0.71263862 0.059700869 0.46103036
0.27838451 0.39651889 0.29970962 0.23836516
0.096544266 0.15905257 0.66072863 0.44153839
0.18150605 0.17330229 0.79565614 0.401804
0.99598217 0.9595176 0.95159966 0.70104396
0.85869002 0.36433187 0.82931846 0.28157529
0.46296209 0.14168532 0.031204652 0.3484951
0.26867947 0.4318938 0.21558568 0.19904758
0.96308702 0.34919733 0.31644508 0.71224797
0.83794159 0.066121958 0.25079536 0.59765702
0.68988508 0.64231151 0.32304499 0.52096331
0.76446462 0.78051102 0.45989484 0.09419319
0.38626799 0.34867817 0.11358321 0.27822083
0.52840883 0.96402264 0.71339893 1.0899829
0.53679156 0.81633502 0.35687009 0.058499224
0.034037933 0.4414919 0.48204637 0.2737506
0.88642061 0.12212552 0.67248183 0.53886366
0.87186098 0.067450806 0.70223999 0.5110743
0.47980922 0.52436215 0.16450083 0.20577586
0.24891455 0.59754032 0.6070171 0.68487477
0.054949094 0.48843977 0.80966556 0.53258294
0.28067613 0.21532674 0.61092013 0.70057243
0.20863901 0.26084927 0.38611546 0.28615558
0.1814633 0.42616993 0.97172332 0.14504403
0.65645546 0.98875844 0.65507859 0.25116822
0.63242203 0.24419916 0.50863022 0.13139382
0.013841539 0.87153971 0.6729303 0.72789454
0.56348354 0.45156607 0.42340142 0.15335086
0.90196031 0.23171689 0.45337346 0.20212154
0.65255845 0.79010767 0.14317375 0.024966694
0.76893193 0.94839168 0.4821541 0.83433068
0.89002383 0.42745125 0.45079598 0.85086477
0.59173763 0.98744667 0.3556228 0.3094292
0.93711019 0.80359364 0.71368444 1.0404768
0.050641626 0.63631856 0.95079601 0.10528037
0.78784221 0.71804756 0.16646577 0.31479728
0.55055237 0.52764577 0.40918675 0.20139739
0.28326932 0.61584955 0.42917365 0.32119673
0.50989527 0.15565772 0.34192938 0.45255411
0.71905255 0.28268376 0.46734792 0.26067632
0.64978516 0.44503906 0.051039454 0.92939216
0.57772124 0.82082707 0.17122552 0.71263951
0.64385134 0.91865474 0.82455558 0.13034624
0.77605069 0.19623977 0.74675578 0.58227801
0.56774646 0.42027211 0.58925337 0.033426765
0.91553724 0.19944775 0.053720292 0.5755645
0.94600779 0.41405451 0.099700198 0.020735152
0.77805388 0.99495029 0.59589052 0.43864578
0.1519281 0.010916545 0.56926322 0.8882218
0.54870248 0.24656023 0.21568425 0.6518352
0.82325637 0.40532598 0.92772812 0.57477146
0.4029195 0.24627523 0.92174578 0.11890751
0.24669278 0.2485476 0.28714636 0.32600355
0.34560502 0.45165223 0.11337783 0.074073389
0.71643257 0.44183517 0.81927693 0.11860785
0.63355792 0.56352788 0.5052039 0.14179981
0.83053565 0.36973509 0.19969772 0.067338385
0.16435108 0.85028344 0.87728542 0.89367241
0.68893969 0.76056617 0.87970757 0.46599606
0.72937191 0.23888063 0.40684143 0.42556706
0.58329183 0.11103786 0.41088748 0.30251604
0.24203356 0.87508005 0.91437674 0.35780469
0.85085213 0.056741394 0.56744415 0.21208327
0.63546538 0.55911022 0.85752475 0.97660458
0.59631556 0.93993789 0.58858502 0.5141378
0.28087065 0.029529372 0.56394982 0.34841383
0.33024424 0.33958605 0.28458145 0.61273021
0.26485464 0.91798848 0.60349256 0.037007213
0.88346434 0.38732368 0.87119913 0.37032276
0.052268751 0.48417234 0.098205 0.09997984
0.55183744 0.30609816 0.64299518 0.34498456
0.91949463 0.16850936 0.87353104 0.96481758
0.83489472 0.0019515855 0.93237334 1.160109
0.11518652 0.8667503 0.84274578 0.41971248
0.16552089 0.20953926 0.22878754 0.043895315
