ply
format ascii 1.0
comment PCL generated
obj_info is_cyberware_data 0
obj_info is_mesh 0
obj_info is_warped 0
obj_info is_interlaced 0
obj_info num_cols 397
obj_info num_rows 1
obj_info echo_rgb_offset_x 0
obj_info echo_rgb_offset_y 0
obj_info echo_rgb_offset_z 0
obj_info echo_rgb_frontfocus 0.0
obj_info echo_rgb_backfocus 0.0
obj_info echo_rgb_pixelsize 0.0
obj_info echo_rgb_centerpixel 0
obj_info echo_frames 1
obj_info echo_lgincr 0.0
element vertex 397
property float x
property float y
property float z
property float nx
property float ny
property float nz
property float curvature
end_header
0.0054216 0.11349 0.040749 -0.168847 -0.451597 -0.876099 0.00309439
-0.0017447 0.11425 0.041273 -0.0115417 -0.465297 -0.885079 0.00568617
-0.010661 0.11338 0.040916 0.146149 -0.496488 -0.855652 0.00564416
0.026422 0.11499 0.032623 -0.520524 -0.536844 -0.663967 0.00697785
0.024545 0.12284 0.024255 -0.507643 -0.74297 -0.436227 0.0128731
0.034137 0.11316 0.02507 -0.746752 -0.592074 -0.303001 0.00816618
0.02886 0.11773 0.027037 -0.597852 -0.677598 -0.428291 0.015595
0.02675 0.12234 0.017605 -0.591582 -0.744823 -0.308659 0.00969106
0.03575 0.1123 0.019109 -0.795533 -0.563939 -0.221588 0.0077297
0.015982 0.12307 0.031279 -0.310863 -0.748702 -0.585499 0.0108552
0.0079813 0.12438 0.032798 -0.154857 -0.701284 -0.695859 0.00581027
0.018101 0.11674 0.035493 -0.322981 -0.561941 -0.761516 0.00894288
0.0086687 0.11758 0.037538 -0.174459 -0.523031 -0.834268 0.00397835
0.01808 0.12536 0.026132 -0.401272 -0.797356 -0.450782 0.0118593
0.0080861 0.12866 0.02619 -0.148469 -0.860615 -0.487134 0.011935
0.02275 0.12146 0.029671 -0.508154 -0.736335 -0.446755 0.0130278
-0.0018689 0.12456 0.033184 0.0218437 -0.732928 -0.679956 0.00629529
-0.011168 0.12376 0.032519 0.219743 -0.737577 -0.638509 0.0058935
-0.0020063 0.11937 0.038104 0.00335778 -0.558385 -0.829575 0.00551124
-0.01232 0.11816 0.037427 0.184089 -0.580107 -0.793465 0.00459719
-0.0016659 0.12879 0.026782 0.0609267 -0.892146 -0.447621 0.00716819
-0.011971 0.12723 0.026219 0.253222 -0.842878 -0.474801 0.00485175
0.016484 0.12828 0.01928 -0.308967 -0.90671 -0.287084 0.00816938
0.0070921 0.13103 0.018415 -0.188577 -0.895497 -0.403143 0.00617738
0.0014615 0.13134 0.017095 -0.030506 -0.934189 -0.355473 0.00782953
-0.013821 0.12886 0.019265 0.200827 -0.908667 -0.366051 0.00412741
-0.01725 0.11202 0.040077 0.179156 -0.520854 -0.834634 0.00742765
-0.074556 0.13415 0.051046 -0.133617 -0.379869 -0.915339 0.0530389
-0.065971 0.14396 0.04109 -0.521481 -0.439255 -0.731514 0.0265514
-0.071925 0.14545 0.043266 -0.109762 -0.608563 -0.785878 0.0307165
-0.06551 0.13624 0.042195 -0.64691 -0.277905 -0.710124 0.00610662
-0.071112 0.13767 0.047518 -0.230281 -0.503958 -0.832464 0.0241938
-0.079528 0.13416 0.051194 0.206001 -0.406361 -0.890188 0.0429995
-0.080421 0.14428 0.042793 0.396706 -0.631328 -0.666371 0.0200713
-0.082672 0.1378 0.046806 0.492222 -0.445293 -0.747952 0.0277162
-0.08813 0.13514 0.042222 0.715889 -0.357946 -0.599482 0.00615066
-0.066325 0.12347 0.050729 -0.447026 0.0265692 -0.894127 0.0491221
-0.072399 0.12662 0.052364 -0.151096 -0.145651 -0.97773 0.012987
-0.066091 0.11973 0.050881 0.493634 -0.273875 0.82542 0.0633804
-0.072012 0.11811 0.052295 0.0899535 -0.403226 0.910669 0.0438895
-0.062433 0.12627 0.043831 0.746104 0.103998 0.657657 0.0252092
-0.068326 0.12998 0.048875 -0.436327 -0.338528 -0.833677 0.025435
-0.063094 0.11811 0.044399 0.737354 -0.318519 0.595697 0.0305317
-0.071301 0.11322 0.04841 0.168308 -0.653318 0.738138 0.0324801
-0.080515 0.12741 0.052034 0.38683 -0.0156896 -0.922018 0.0178339
-0.078179 0.1191 0.051116 0.155181 0.313813 -0.936718 0.0213803
-0.085216 0.12609 0.049001 0.664132 -0.0600758 -0.745198 0.0169704
-0.089538 0.12621 0.044589 0.75928 -0.118135 -0.639952 0.0153618
-0.082659 0.11661 0.04797 0.446716 0.382617 -0.808733 0.0153458
-0.089536 0.11784 0.04457 0.67966 0.126363 -0.722561 0.0324784
-0.0565 0.15248 0.030132 -0.337628 -0.712365 -0.615259 0.0429281
-0.055517 0.15313 0.026915 -0.832378 -0.386915 -0.396792 0.0234263
-0.03625 0.17198 0.00017688 -0.295378 -0.141318 -0.944871 0.0683702
-0.03775 0.17198 0.00022189 -0.295378 -0.141317 -0.944871 0.0683704
-0.03625 0.16935 0.00051958 -0.295378 -0.141317 -0.944871 0.0683704
-0.033176 0.15711 0.0018682 -0.434379 -0.107276 -0.894319 0.0279916
-0.051913 0.1545 0.011273 -0.665712 -0.530419 -0.524865 0.109406
-0.041707 0.16642 0.0030522 -0.0886845 -0.326596 -0.940994 0.0406718
-0.049468 0.16414 0.0041988 -0.198205 -0.511642 -0.836025 0.0189895
-0.041892 0.15669 0.0054879 -0.467684 -0.154978 -0.870203 0.0216144
-0.051224 0.15878 0.0080283 -0.366112 -0.406813 -0.836938 0.0319573
-0.062417 0.15317 0.033161 -0.348495 -0.736242 -0.580085 0.0440058
-0.07167 0.15319 0.033701 0.0377748 -0.848267 -0.528221 0.0194144
-0.062543 0.15524 0.027405 -0.348416 -0.736447 -0.579872 0.0439489
-0.07211 0.1555 0.027645 0.0843751 -0.852517 -0.515844 0.0232482
-0.078663 0.15269 0.032268 0.363765 -0.810802 -0.458558 0.00710892
-0.081569 0.15374 0.026085 0.418487 -0.813237 -0.404368 0.0110179
-0.08725 0.1523 0.022135 0.798031 -0.464047 -0.384456 0.0349332
-0.05725 0.15568 0.010325 -0.665739 -0.53038 -0.524871 0.109408
-0.057888 0.1575 0.0073225 -0.366142 -0.406794 -0.836934 0.0319567
-0.0885 0.15223 0.019215 0.851482 -0.36152 -0.379845 0.0479972
-0.056129 0.14616 0.03085 -0.714067 -0.255529 -0.651778 0.0266502
-0.054705 0.13555 0.032127 -0.75563 -0.254656 -0.603467 0.00622802
-0.054144 0.14714 0.026275 -0.8362 -0.332005 -0.436512 0.0275164
-0.046625 0.13234 0.021909 -0.771671 -0.459835 -0.439403 0.0155682
-0.05139 0.13694 0.025787 -0.825025 -0.298022 -0.480122 0.0164814
-0.018278 0.12238 0.030773 0.218986 -0.774674 -0.593233 0.0116813
-0.021656 0.11643 0.035209 0.256123 -0.609318 -0.750421 0.00298228
-0.031921 0.11566 0.032851 0.0891176 -0.691717 -0.716649 0.00718297
-0.021348 0.12421 0.024562 0.218526 -0.883559 -0.414209 0.00381639
-0.03241 0.12349 0.023293 -0.00989794 -0.834674 -0.550655 0.00820574
-0.024869 0.12094 0.028745 0.23928 -0.826706 -0.509217 0.00830354
-0.031747 0.12039 0.028229 0.0333544 -0.811898 -0.582846 0.00854603
-0.052912 0.12686 0.034968 -0.682187 -0.300162 -0.666725 0.0107169
-0.041672 0.11564 0.032998 -0.0551187 -0.647116 -0.760397 0.00408713
-0.052037 0.1168 0.034582 -0.214788 -0.39843 -0.891695 0.0352774
-0.042495 0.12488 0.024082 -0.287727 -0.718703 -0.632993 0.0365278
-0.047946 0.12736 0.028108 -0.72714 -0.352156 -0.589282 0.0245285
-0.042421 0.12035 0.028633 -0.286996 -0.608197 -0.740088 0.0469431
-0.047661 0.12024 0.028871 -0.63171 -0.407639 -0.659373 0.0352983
-0.035964 0.1513 0.0005395 0.425976 0.0697608 0.902041 0.0136609
-0.050598 0.1474 0.013881 -0.797926 -0.506493 -0.32677 0.0563009
-0.046375 0.13293 0.018289 -0.644007 -0.559729 -0.521496 0.0271221
-0.049125 0.13856 0.016269 -0.828566 -0.351744 -0.435609 0.0113426
-0.042976 0.14915 0.0054003 -0.530527 -0.143324 -0.835464 0.0195825
-0.047965 0.14659 0.0086783 -0.432822 -0.421474 -0.796885 0.0286413
-0.022926 0.1263 0.018077 0.218529 -0.883557 -0.414213 0.00381362
-0.031583 0.1259 0.017804 -0.0841332 -0.809221 -0.581449 0.0185333
-0.041733 0.12796 0.01665 -0.365184 -0.632932 -0.682669 0.027313
-0.061482 0.14698 0.036168 -0.504085 -0.445496 -0.739886 0.039871
-0.071729 0.15026 0.038328 -0.0154963 -0.77303 -0.63418 0.0178013
-0.060526 0.1368 0.035999 -0.713067 -0.242838 -0.657696 0.00632711
-0.082619 0.14823 0.035955 0.476698 -0.711927 -0.515673 0.0135328
-0.087824 0.14449 0.033779 0.785172 -0.521932 -0.333306 0.0247974
-0.089 0.13828 0.037774 0.84258 -0.394188 -0.36698 0.014367
-0.085662 0.15095 0.028208 0.525104 -0.783486 -0.332288 0.0255163
-0.089601 0.14725 0.025869 0.896148 -0.323519 -0.303735 0.0340049
-0.090681 0.13748 0.02369 0.959848 -0.22861 -0.162568 0.00763161
-0.058722 0.12924 0.038992 -0.705801 -0.128467 -0.696664 0.0168502
-0.060075 0.11512 0.037685 -0.491934 -0.0588573 -0.86864 0.0409298
-0.091812 0.12767 0.038703 0.939563 -0.179707 -0.291421 0.0140432
-0.091727 0.11657 0.039619 0.864138 0.33087 -0.379197 0.0489406
-0.093164 0.12721 0.025211 0.985523 -0.120562 -0.119207 0.0043065
-0.093938 0.12067 0.024399 0.984272 0.164538 0.0643099 0.0298384
-0.091583 0.14522 0.01986 0.896143 -0.323522 -0.303747 0.0340129
-0.090929 0.13667 0.019817 0.958056 -0.207268 -0.19791 0.00576224
-0.093094 0.11635 0.018959 0.98244 0.181176 0.0445767 0.0320725
0.024948 0.10286 0.041418 -0.502176 -0.451494 -0.737545 0.00497696
0.0336 0.092627 0.040463 -0.668444 -0.238137 -0.704608 0.00840114
0.02742 0.096386 0.043312 -0.524491 -0.311019 -0.792575 0.00424406
0.03392 0.086911 0.041034 -0.689858 -0.0977859 -0.71731 0.00654127
0.028156 0.086837 0.045084 -0.573204 -0.0841373 -0.815081 0.0041391
0.03381 0.078604 0.040854 -0.674953 0.049827 -0.736176 0.00272506
0.028125 0.076874 0.045059 -0.61608 0.0924817 -0.782236 0.00234655
0.0145 0.093279 0.05088 -0.377295 -0.353532 -0.855958 0.00526678
0.0074817 0.09473 0.052315 -0.185863 -0.507613 -0.841299 0.0126465
0.017407 0.10535 0.043139 -0.249985 -0.501043 -0.828531 0.00505694
0.0079536 0.10633 0.042968 -0.12115 -0.457676 -0.880827 0.00578192
0.018511 0.097194 0.047253 -0.371126 -0.345666 -0.861847 0.0054108
0.0086436 0.099323 0.048079 -0.116442 -0.597305 -0.793516 0.00551301
-0.0020197 0.095698 0.053906 -0.0248332 -0.575896 -0.817146 0.0126716
-0.011446 0.095169 0.053862 0.135231 -0.593766 -0.793193 0.0145432
-0.001875 0.10691 0.043455 0.0262789 -0.399938 -0.916165 0.00270595
-0.011875 0.10688 0.043019 0.119293 -0.395219 -0.910808 0.0015582
-0.0017622 0.10071 0.046648 -0.00695974 -0.587377 -0.809283 0.0158523
-0.012498 0.10008 0.045916 0.11381 -0.60801 -0.78573 0.0154902
0.016381 0.085894 0.051642 -0.405461 -0.170095 -0.898147 0.00303228
0.0081167 0.08691 0.055228 -0.295604 -0.255772 -0.920434 0.00761856
0.017644 0.076955 0.052372 -0.441645 0.0167932 -0.897033 0.00388095
0.008125 0.076853 0.055536 -0.284534 0.0144393 -0.958557 0.00305114
0.020575 0.088169 0.049006 -0.482518 -0.149533 -0.863027 0.00215327
0.022445 0.075721 0.049563 -0.542741 0.0423932 -0.838829 0.00433209
-0.0017931 0.086849 0.056843 -0.0851294 -0.296728 -0.95116 0.0212613
-0.011943 0.086771 0.057009 0.195157 -0.192255 -0.961744 0.0124584
-0.0019567 0.076863 0.057803 -0.055512 -0.0153499 -0.99834 0.00744862
-0.011875 0.076964 0.057022 0.275562 0.107599 -0.955242 0.0201878
0.03325 0.067541 0.040033 -0.643878 0.133963 -0.75331 0.00243708
0.028149 0.066829 0.042953 -0.595099 0.1571 -0.788148 0.00126349
0.026761 0.057829 0.042588 -0.566845 0.278114 -0.775461 0.00321901
0.023571 0.04746 0.040428 -0.608111 0.314265 -0.728998 0.00639653
0.015832 0.067418 0.051639 -0.464392 0.156351 -0.871719 0.00333406
0.0080431 0.066902 0.055006 -0.29502 0.150217 -0.943609 0.00374819
0.013984 0.058886 0.050416 -0.440737 0.284976 -0.851199 0.00536556
0.0080973 0.056888 0.05295 -0.290525 0.289767 -0.911937 0.00647425
0.020566 0.065958 0.0483 -0.514916 0.170843 -0.840044 0.00174918
0.018594 0.056539 0.047879 -0.511756 0.28225 -0.811443 0.00293539
0.012875 0.052652 0.049689 -0.388402 0.398108 -0.831056 0.0085875
-0.0017852 0.066712 0.056503 -0.020317 0.178902 -0.983657 0.00414051
-0.011785 0.066885 0.055015 0.329269 0.215632 -0.919285 0.0196899
-0.001875 0.056597 0.05441 -0.00528236 0.276036 -0.961133 0.00680424
-0.01184 0.057054 0.052714 0.328407 0.262311 -0.907382 0.0163863
-0.015688 0.052469 0.049615 0.240838 0.0117704 -0.970494 0.0596737
0.0066154 0.04993 0.051259 -0.197959 0.384784 -0.901528 0.00844276
0.018088 0.046655 0.043321 -0.484777 0.327233 -0.811116 0.012247
0.008841 0.045437 0.046623 -0.217864 0.421536 -0.880252 0.0101992
0.017688 0.039719 0.043084 -0.507133 0.319021 -0.800651 0.0142143
0.008125 0.039516 0.045374 -0.241385 0.43614 -0.8669 0.00991699
-0.0016111 0.049844 0.05172 -0.0381853 0.390128 -0.919968 0.010735
-0.01245 0.046773 0.050903 0.00944101 0.0796958 -0.996774 0.0474921
-0.013851 0.039778 0.051036 -0.207151 -0.254383 -0.944657 0.0254807
-0.0020294 0.044874 0.047587 -0.145195 0.316279 -0.937489 0.0186713
-0.011653 0.04686 0.048661 0.00944047 0.0797058 -0.996774 0.0474944
-0.0018611 0.039606 0.047339 -0.145196 0.316279 -0.937489 0.0186737
-0.0091545 0.03958 0.049415 -0.184946 0.0165738 -0.982609 0.0252985
0.043661 0.094028 0.02252 -0.920418 -0.280932 -0.271861 0.00660307
0.034642 0.10473 0.031831 -0.690159 -0.40016 -0.602954 0.00443546
0.028343 0.1072 0.036339 -0.528222 -0.478075 -0.70173 0.00677548
0.036339 0.096552 0.034843 -0.779043 -0.268577 -0.566532 0.00417758
0.031733 0.099372 0.038505 -0.65142 -0.30413 -0.695095 0.00611811
0.036998 0.10668 0.026781 -0.824142 -0.398302 -0.402672 0.00914588
0.032875 0.11108 0.02959 -0.740146 -0.520585 -0.425647 0.0111091
0.040938 0.097132 0.026663 -0.886921 -0.31068 -0.341831 0.00383806
0.044153 0.086466 0.024241 -0.954143 -0.115371 -0.276226 0.0076777
0.05375 0.072221 0.020429 -0.517989 -0.501132 -0.693221 0.0650336
0.04516 0.076574 0.023594 -0.696148 -0.0840452 -0.712961 0.0449777
0.038036 0.086663 0.035459 -0.810027 -0.0615187 -0.583157 0.0046866
0.037861 0.076625 0.035658 -0.774144 0.0543911 -0.630668 0.00259612
0.042216 0.087237 0.028254 -0.898335 -0.101551 -0.427412 0.00565783
0.042355 0.076747 0.02858 -0.867172 -0.0775569 -0.491933 0.0139276
0.043875 0.096228 0.015269 -0.958951 -0.226595 -0.17049 0.00438885
0.044375 0.096797 0.0086445 -0.941158 -0.307273 -0.14073 0.00598555
0.039545 0.1061 0.017655 -0.888667 -0.414216 -0.196712 0.00217562
0.042313 0.10009 0.017237 -0.924375 -0.330197 -0.191049 0.0041756
0.045406 0.087417 0.015604 -0.964858 -0.19427 -0.176942 0.0036037
0.055118 0.072639 0.017944 -0.563422 -0.424177 -0.708964 0.0535298
0.048722 0.07376 0.017434 -0.587093 -0.509504 -0.629069 0.0437831
0.045917 0.086298 0.0094211 -0.975637 -0.16883 -0.140102 0.0032496
0.019433 0.1096 0.039063 -0.25649 -0.498966 -0.827796 0.00477401
0.01097 0.11058 0.039648 -0.148286 -0.488508 -0.859867 0.00484831
0.046657 0.057153 0.031337 -0.352052 -0.0725891 -0.933161 0.0314281
0.056079 0.066335 0.024122 -0.520205 -0.443204 -0.730039 0.0495731
0.048168 0.06701 0.026298 -0.286577 -0.493268 -0.821317 0.0322267
0.056055 0.057253 0.024902 -0.708717 0.0687963 -0.70213 0.0291807
0.051163 0.056662 0.029137 -0.575387 0.0717269 -0.81473 0.0430095
0.036914 0.067032 0.036122 -0.756853 0.0668698 -0.650155 0.00505947
0.033 0.06472 0.039903 -0.668118 0.142683 -0.730246 0.00293971
0.038004 0.056507 0.033119 -0.498216 0.0196394 -0.866831 0.0429048
0.030629 0.054915 0.038484 -0.526851 0.271086 -0.805569 0.00289734
0.041875 0.066383 0.028357 -0.783736 -0.109931 -0.611288 0.0367909
0.041434 0.06088 0.029632 -0.537082 -0.0224251 -0.843232 0.0459723
0.044921 0.049904 0.031243 -0.35289 0.348628 -0.86829 0.0371235
0.054635 0.050167 0.022044 -0.70719 0.318204 -0.63137 0.0163253
0.04828 0.04737 0.025845 -0.526529 0.517854 -0.674237 0.00988164
0.037973 0.048347 0.031456 -0.361871 0.47896 -0.799779 0.0153378
0.028053 0.047061 0.035991 -0.573998 0.451643 -0.683041 0.016998
0.025595 0.040346 0.03415 -0.680978 0.285706 -0.67427 0.00934917
0.038455 0.043509 0.028278 -0.378065 0.511052 -0.771941 0.0229275
0.032031 0.043278 0.029253 -0.53198 0.507477 -0.677838 0.019726
0.036581 0.040335 0.025144 -0.399425 0.691314 -0.602117 0.00781536
0.03019 0.039321 0.026847 -0.531986 0.507466 -0.677841 0.0197225
0.059333 0.067891 0.017361 -0.563449 -0.424201 -0.708928 0.0535211
0.0465 0.071452 0.01971 -0.517983 -0.501172 -0.693196 0.0650221
0.059562 0.057747 0.01834 -0.887307 0.0721439 -0.455501 0.0445946
0.055636 0.049199 0.019173 -0.707191 0.318207 -0.631368 0.016324
0.0505 0.045064 0.019181 -0.581647 0.581932 -0.568367 0.0142118
0.023 0.047803 0.039776 -0.608111 0.314265 -0.728998 0.00639653
0.022389 0.03886 0.038795 -0.594906 0.430034 -0.679085 0.0180049
-0.019545 0.0939 0.052205 0.349271 -0.482875 -0.803021 0.0180888
-0.021462 0.10618 0.042059 0.180827 -0.437738 -0.880731 0.00277499
-0.031027 0.10395 0.041228 0.112919 -0.474366 -0.873056 0.00677597
-0.022521 0.097723 0.045194 0.270585 -0.416508 -0.867931 0.0237602
-0.031858 0.097026 0.043878 0.172807 -0.286049 -0.942504 0.0143634
-0.043262 0.10412 0.040891 0.0007364 -0.459586 -0.888133 0.0045938
-0.052154 0.10404 0.040972 -0.0363389 -0.34159 -0.939146 0.00271941
-0.041875 0.096944 0.042424 -0.00442344 -0.223879 -0.974607 0.00702577
-0.051919 0.096967 0.043563 -0.040231 -0.221492 -0.974332 0.00420048
-0.021489 0.086672 0.054767 0.506181 -0.162355 -0.847008 0.034249
-0.027 0.083087 0.050284 0.680045 -0.0893621 -0.727704 0.0304439
-0.02107 0.077249 0.054365 0.536062 0.17085 -0.826709 0.0182118
-0.026011 0.089634 0.048981 0.680043 -0.0893531 -0.727707 0.0304435
-0.031893 0.087035 0.044169 0.282801 -0.0354332 -0.958524 0.0274276
-0.025625 0.074892 0.047102 0.694813 0.273213 -0.665274 0.0175042
-0.03197 0.0769 0.042177 0.297576 0.228987 -0.92683 0.0315694
-0.041824 0.086954 0.043295 0.106451 0.00456269 -0.994307 0.0281522
-0.051825 0.086844 0.044933 -0.0385422 0.0678144 -0.996953 0.00682672
-0.041918 0.076728 0.042564 -0.00796771 0.186972 -0.982333 0.00342645
-0.051849 0.076877 0.042992 0.038097 0.288186 -0.956816 0.00871764
-0.061339 0.10393 0.041164 -0.0294025 -0.256624 -0.966064 0.03618
-0.072672 0.10976 0.044294 0.0849624 -0.636974 0.766189 0.0402197
-0.061784 0.096825 0.043327 0.160923 -0.2227 -0.961514 0.00586814
-0.070058 0.096203 0.041397 0.403628 -0.00808624 -0.914887 0.038544
-0.080439 0.11091 0.044343 -0.317965 -0.753633 0.57527 0.00964389
-0.061927 0.086724 0.04452 0.17249 0.0456383 -0.983953 0.00733266
-0.070344 0.087352 0.041908 0.425823 0.091916 -0.900126 0.0116843
-0.06141 0.077489 0.042178 0.199232 0.374111 -0.905731 0.00825847
-0.068579 0.080144 0.041024 0.418951 0.421333 -0.804337 0.00844768
-0.019045 0.067732 0.052388 0.651995 0.235851 -0.720608 0.0180738
-0.017742 0.058909 0.050809 0.55176 0.18902 -0.812301 0.0154135
-0.023548 0.066382 0.045226 0.694831 0.288095 -0.658947 0.0189957
-0.03399 0.067795 0.040929 0.0532205 0.194767 -0.979405 0.032201
-0.02169 0.056549 0.045164 0.696358 0.114629 -0.708481 0.0217075
-0.036111 0.060706 0.040407 -0.0615889 0.120013 -0.99086 0.0100137
-0.041231 0.066951 0.041392 0.103164 0.130518 -0.986064 0.0203211
-0.048588 0.070956 0.040357 0.184211 0.328997 -0.92619 0.0155676
-0.0403 0.059465 0.040446 0.160848 0.15766 -0.974306 0.0307725
-0.02192 0.044965 0.052258 0.109138 -0.44715 -0.887776 0.0337792
-0.029187 0.043585 0.051088 0.291563 -0.596196 -0.748025 0.0390493
-0.021919 0.039826 0.053521 -0.0759916 -0.251132 -0.964965 0.0258038
-0.030331 0.039749 0.052133 0.301032 -0.487926 -0.819334 0.0328267
-0.021998 0.049847 0.046725 0.29243 -0.44416 -0.846881 0.077967
-0.031911 0.046848 0.045187 0.36674 -0.604645 -0.70704 0.00946689
-0.035276 0.039753 0.047529 0.395175 -0.554228 -0.732576 0.0139976
-0.042016 0.044823 0.041594 0.108557 -0.519317 -0.847659 0.0292786
-0.05194 0.044707 0.043498 0.0826517 -0.487626 -0.869132 0.0254663
-0.041928 0.039327 0.043582 0.155475 -0.664153 -0.731251 0.0213746
-0.051857 0.039252 0.046212 0.146575 -0.598716 -0.787436 0.0318542
-0.059453 0.04424 0.042862 0.359942 -0.782895 -0.507461 0.0502453
-0.060765 0.039087 0.044363 0.27817 -0.616023 -0.736979 0.0701273
-0.024273 0.11038 0.039129 0.214184 -0.478062 -0.851811 0.00335141
-0.032379 0.10878 0.037952 0.104145 -0.510282 -0.853678 0.00511677
-0.041152 0.10853 0.037969 -0.0383216 -0.473597 -0.879907 0.00547883
-0.051698 0.10906 0.038258 -0.0775108 -0.428725 -0.900104 0.00545513
-0.062091 0.10877 0.038274 -0.192254 -0.142924 -0.970882 0.0722133
-0.071655 0.10596 0.037516 -0.121208 -0.543445 0.830648 0.112717
-0.074634 0.097746 0.038347 0.573058 -0.00357325 -0.819507 0.0334606
-0.07912 0.10508 0.032308 0.791113 0.178157 -0.58515 0.055837
-0.080203 0.096758 0.033592 0.70376 -0.117956 -0.700577 0.00594554
-0.08378 0.10568 0.025985 0.841196 0.0212507 -0.540313 0.0335502
-0.087292 0.10314 0.020825 0.874065 -0.167178 -0.456137 0.00708715
-0.08521 0.097079 0.02781 0.847345 -0.0917337 -0.52306 0.00573046
-0.088082 0.096456 0.022985 0.903363 -0.114705 -0.413253 0.00700194
-0.07516 0.08604 0.038816 0.561566 0.104487 -0.820808 0.00911178
-0.064577 0.073455 0.03897 0.262353 0.462051 -0.84716 0.00772662
-0.072279 0.076416 0.036413 0.534227 0.419666 -0.733814 0.0055707
-0.076375 0.072563 0.02873 0.671097 0.631824 -0.387848 0.0044638
-0.080031 0.087076 0.03429 0.732118 0.157377 -0.662748 0.0100241
-0.078919 0.079371 0.032477 0.692763 0.456522 -0.558272 0.00873722
-0.084834 0.086686 0.026974 0.839632 0.188856 -0.509265 0.00761407
-0.087891 0.089233 0.022611 0.890911 0.139295 -0.43229 0.0128483
-0.081048 0.077169 0.025829 0.786415 0.463738 -0.408042 0.00624691
-0.086393 0.10784 0.018635 0.821737 0.225323 -0.52343 0.0492278
-0.087672 0.10492 0.017264 0.866817 0.00547545 -0.498597 0.0334537
-0.089333 0.098483 0.01761 0.903389 -0.114695 -0.413198 0.00697445
-0.086375 0.083067 0.018607 0.891799 0.414648 -0.181003 0.00880028
-0.089179 0.089186 0.018947 0.971102 0.132355 -0.198601 0.021749
-0.082879 0.076109 0.017794 0.848892 0.485393 -0.209227 0.00351741
-0.0825 0.074674 0.0071175 0.82751 0.529285 -0.18731 0.00490807
-0.026437 0.064141 0.039321 0.438143 0.22409 -0.870525 0.0407269
-0.030035 0.06613 0.038942 0.0426279 0.206842 -0.977445 0.0367314
-0.026131 0.056531 0.038882 0.468686 -0.187459 -0.863245 0.0579407
-0.031664 0.056657 0.037742 -0.0112008 -0.109719 -0.9939 0.0490787
-0.045716 0.064541 0.039166 0.270664 0.203767 -0.940862 0.0146091
-0.051959 0.066869 0.036733 0.450689 0.513996 -0.729854 0.0256678
-0.042557 0.055545 0.039026 0.148608 -0.0416014 -0.988021 0.0415277
-0.049406 0.056892 0.034344 0.672717 0.115769 -0.730787 0.0424286
-0.0555 0.062391 0.029498 0.599514 0.533573 -0.596559 0.0430336
-0.05375 0.058574 0.026313 0.834611 0.443358 -0.326892 0.0750014
-0.03406 0.050137 0.038577 0.0621569 -0.341505 -0.937822 0.0490065
-0.041741 0.04959 0.03929 0.186981 -0.346361 -0.919278 0.0451237
-0.050975 0.049435 0.036965 0.242717 -0.677562 -0.694261 0.0511338
-0.053 0.051065 0.029209 0.349517 -0.617141 -0.704964 0.0423393
-0.054145 0.054568 0.012257 0.738117 -0.58371 0.338329 0.101173
-0.055848 0.05417 0.0083272 0.553822 -0.621941 0.553597 0.0747888
-0.054844 0.049295 0.011462 0.71344 -0.501945 0.488932 0.076895
-0.05615 0.050619 0.0092929 0.584539 -0.607745 0.53755 0.087735
-0.061451 0.068257 0.035376 -0.293717 -0.706549 0.643832 0.00694892
-0.069725 0.069958 0.032788 0.512508 0.665416 -0.542732 0.00827431
-0.062823 0.063322 0.026886 -0.369546 -0.809089 0.456958 0.00153735
-0.071037 0.066787 0.025228 -0.532039 -0.767048 0.35857 0.00464374
-0.060857 0.060568 0.022643 -0.364521 -0.860088 0.356894 0.00455101
-0.067 0.061558 0.020109 -0.451345 -0.751771 0.480757 0.00562227
-0.0782 0.071279 0.021032 0.72854 0.599489 -0.331426 0.00624164
-0.062116 0.045145 0.037802 0.533656 -0.684995 -0.495976 0.0406424
-0.065473 0.039513 0.037964 0.533651 -0.684993 -0.495984 0.040638
-0.06725 0.03742 0.033413 0.582832 -0.785102 -0.209576 0.0409944
-0.072702 0.065008 0.018701 -0.52007 -0.777495 0.353594 0.00544074
-0.06145 0.059165 0.018731 -0.344486 -0.881803 0.322106 0.00413777
-0.0675 0.061479 0.019221 -0.493955 -0.764835 0.413565 0.00612815
-0.057411 0.054114 0.0038257 0.584517 -0.607743 0.537577 0.087737
-0.079222 0.070654 0.017735 0.73846 0.651867 -0.172471 0.00680757
-0.062473 0.04468 0.01111 0.46874 -0.607175 -0.641577 0.00586675
-0.06725 0.042258 0.010414 0.468782 -0.607202 -0.641521 0.00585891
-0.066389 0.040515 0.01316 0.468788 -0.607211 -0.641509 0.00585754
-0.068359 0.038502 0.011958 0.468824 -0.607235 -0.641459 0.00585021
-0.061381 0.04748 0.007607 0.569435 -0.667788 -0.479378 0.0167035
-0.068559 0.043549 0.0081576 0.475985 -0.670205 -0.569442 0.00289015
-0.070929 0.03983 0.0085888 0.475985 -0.670205 -0.569442 0.00289015
-0.016625 0.18375 -0.019735 -0.695385 -0.23898 -0.677738 0.0056981
-0.015198 0.17471 -0.018868 -0.592375 -0.24638 -0.767065 0.0134918
-0.015944 0.16264 -0.0091037 -0.43223 -0.517128 -0.738753 0.00369721
-0.015977 0.1607 -0.0088072 -0.393573 -0.489352 -0.778226 0.00639539
-0.013251 0.16708 -0.015264 -0.522489 -0.466891 -0.713455 0.00648715
-0.014292 0.16098 -0.011252 -0.450743 -0.534377 -0.715033 0.00452339
-0.013986 0.184 -0.023739 -0.699967 -0.291576 -0.651943 0.00680062
-0.011633 0.17699 -0.023349 -0.646715 -0.3024 -0.700224 0.0118959
-0.0091029 0.16988 -0.021457 -0.592307 -0.378636 -0.711201 0.00922426
-0.025562 0.18273 -0.0096247 0.67987 0.016673 0.733143 0.00953902
-0.02725 0.18254 -0.0094384 0.679869 0.0166793 0.733144 0.00953924
-0.025736 0.17948 -0.0089653 0.67987 0.0166768 0.733143 0.00953935
-0.031216 0.17589 -0.0051154 0.632551 -0.029571 0.773954 0.0175946
-0.020399 0.1845 -0.014943 0.702461 0.0384957 0.71068 0.00765225
-0.021339 0.17645 -0.014566 0.661178 0.0277384 0.749716 0.00990743
-0.027125 0.17234 -0.010156 0.608424 0.09602 0.787782 0.0218244
-0.03939 0.1733 -0.0023575 -0.295378 -0.141318 -0.944871 0.0683703
-0.022876 0.16406 -0.0078103 -0.381295 -0.481712 -0.78903 0.00603849
-0.031597 0.16651 -0.0049292 -0.624788 -0.195124 -0.75602 0.0190999
-0.0226 0.15912 -0.003799 -0.3773 -0.506511 -0.7753 0.00464368
-0.030372 0.15767 -0.0012672 -0.461413 -0.126611 -0.878105 0.0272694
-0.021158 0.16849 -0.012383 -0.432735 -0.473571 -0.767119 0.00675989
-0.027 0.1712 -0.01022 0.608424 0.0960205 0.787782 0.0218234
-0.041719 0.16813 -0.00074958 -0.301089 -0.0917721 -0.94917 0.0642066
-0.04825 0.16748 -0.00015191 -0.16684 -0.357729 -0.918801 0.0428675
-0.03725 0.16147 -7.2628e-05 -0.50186 -0.166202 -0.848831 0.0340109
-0.066429 0.15783 -0.0085673 0.206407 -0.933051 -0.294638 0.0155436
-0.071284 0.15839 -0.005998 0.206407 -0.933051 -0.294638 0.0155436
-0.065979 0.16288 -0.017792 0.191038 -0.865457 -0.463129 0.0318417
-0.071623 0.16384 -0.01576 0.190915 -0.865516 -0.46307 0.0317857
-0.066068 0.16051 -0.013567 0.186127 -0.917879 -0.350508 0.025151
-0.073307 0.16049 -0.011832 0.238807 -0.85916 -0.452565 0.0340517
-0.077 0.16204 -0.019241 0.222282 -0.87923 -0.42136 0.033565
-0.077179 0.15851 -0.01495 0.182665 -0.913105 -0.364518 0.025215
-0.073691 0.17286 -0.037944 -0.0255423 -0.916482 -0.399259 0.0191741
-0.07755 0.17221 -0.039175 -0.0254766 -0.916505 -0.399211 0.0191128
-0.065921 0.16586 -0.025022 0.157159 -0.881961 -0.444348 0.0288725
-0.072095 0.16784 -0.024725 0.176788 -0.888377 -0.423713 0.0277464
-0.066 0.16808 -0.030916 0.0546102 -0.915569 -0.398437 0.0143959
-0.073448 0.17051 -0.032045 0.0984812 -0.883867 -0.457254 0.0109659
-0.07777 0.16434 -0.025938 0.215444 -0.875004 -0.433535 0.0268263
-0.077893 0.16039 -0.021299 0.222292 -0.879156 -0.42151 0.0336943
-0.078211 0.169 -0.034566 0.186131 -0.853686 -0.486391 0.0127352
-0.034667 0.15131 -0.00071029 -0.397714 -0.189875 -0.897647 0.0191859
-0.066117 0.17353 -0.047453 -0.15293 -0.884868 -0.440023 0.0124272
-0.071986 0.17612 -0.045384 -0.186011 -0.853047 -0.487556 0.0156542
-0.06925 0.182 -0.055026 -0.186466 -0.852848 -0.487731 0.0157221
-0.064992 0.17802 -0.054645 -0.186329 -0.852914 -0.487667 0.015678
-0.069935 0.17983 -0.051988 -0.186466 -0.852848 -0.487731 0.0157221
-0.07793 0.17516 -0.0444 -0.186293 -0.852933 -0.487647 0.0156675
