# .PCD v0.7 - Point Cloud Data file format
VERSION 0.7
FIELDS x y z normal_x normal_y normal_z curvature
SIZE 4 4 4 4 4 4 4
TYPE F F F F F F F
COUNT 1 1 1 1 1 1 1
WIDTH 397
HEIGHT 1
VIEWPOINT 0 0 0 1 0 0 0
POINTS 397
DATA ascii
0.1054216 0.21349001 0.14074901 -0.16884723 -0.45159745 -0.87609947 0.0030943851
0.098255299 0.21425 0.14127301 -0.011541721 -0.46529692 -0.88507944 0.0056861709
0.089339003 0.21338001 0.140916 0.14614862 -0.496488 -0.85565197 0.0056441575
0.126422 0.21499 0.132623 -0.52052444 -0.53684396 -0.66396749 0.0069778459
0.124545 0.22284001 0.124255 -0.50764346 -0.74296999 -0.4362267 0.012873111
0.134137 0.21316001 0.12507001 -0.74675208 -0.59207439 -0.30300051 0.00816618
0.12886 0.21773 0.127037 -0.59785169 -0.67759848 -0.42829144 0.015595004
0.12675001 0.22234 0.117605 -0.59158164 -0.74482262 -0.30865923 0.0096910615
0.13575 0.2123 0.119109 -0.79553264 -0.56393856 -0.22158764 0.0077297003
0.115982 0.22307 0.13127901 -0.31086302 -0.74870217 -0.58549905 0.010855215
0.1079813 0.22438 0.132798 -0.15485749 -0.70128393 -0.69585913 0.0058102743
0.118101 0.21674001 0.13549301 -0.32298067 -0.56194073 -0.76151562 0.0089428844
0.1086687 0.21757999 0.137538 -0.17445859 -0.523031 -0.83426785 0.0039783465
0.11808001 0.22536001 0.126132 -0.40127173 -0.79735625 -0.45078158 0.011859259
0.1080861 0.22865999 0.12619001 -0.14846934 -0.86061466 -0.48713383 0.01193497
0.12275 0.22146 0.12967101 -0.50815374 -0.73633546 -0.44675478 0.013027777
0.098131098 0.22455999 0.133184 0.021843739 -0.73292792 -0.6799556 0.0062952945
0.088831998 0.22376001 0.13251901 0.21974316 -0.7375769 -0.63850862 0.0058935038
0.097993702 0.21937001 0.13810401 0.0033577818 -0.55838519 -0.82957506 0.0055112438
0.087680005 0.21816 0.137427 0.18408856 -0.58010685 -0.79346544 0.0045971852
0.098334104 0.22879001 0.126782 0.060926694 -0.89214551 -0.44762078 0.0071681938
0.088029005 0.22723001 0.126219 0.25322157 -0.84287763 -0.474801 0.004851752
0.116484 0.22828001 0.11928 -0.30896688 -0.90670973 -0.28708377 0.0081693754
0.1070921 0.23102999 0.118415 -0.18857701 -0.8954969 -0.40314254 0.0061773811
0.1014615 0.23133999 0.117095 -0.030506011 -0.93418866 -0.35547286 0.0078295255
0.086179003 0.22885999 0.119265 0.20082667 -0.90866685 -0.36605063 0.0041274121
0.08275 0.21202001 0.14007699 0.17915623 -0.52085388 -0.83463424 0.0074276463
0.025444001 0.23414999 0.15104601 -0.13361748 -0.37986907 -0.91533923 0.053038858
0.034029 0.24395999 0.14109001 -0.52148068 -0.439255 -0.73151416 0.026551403
0.028075002 0.24544999 0.14326599 -0.10976201 -0.60856271 -0.78587765 0.030716548
0.034490004 0.23624 0.142195 -0.64690953 -0.27790511 -0.71012449 0.0061066193
0.028888002 0.23767 0.14751801 -0.23028101 -0.50395799 -0.8324644 0.024193831
0.020472005 0.23416001 0.15119401 0.20600085 -0.40636119 -0.89018774 0.042999495
0.019579001 0.24428001 0.142793 0.39670554 -0.63132799 -0.66637051 0.020071341
0.017328002 0.2378 0.146806 0.49222195 -0.44529268 -0.74795187 0.027716169
0.011870004 0.23514 0.142222 0.71588868 -0.35794571 -0.59948176 0.0061506582
0.033675 0.22347 0.150729 -0.44702551 0.026569208 -0.89412653 0.049122065
0.027601004 0.22661999 0.152364 -0.15109582 -0.14565089 -0.97772992 0.012987013
0.033909 0.21973 0.15088099 0.49363372 -0.27387455 0.82542014 0.063380361
0.027988002 0.21811 0.15229499 0.089953512 -0.40322584 0.91066861 0.043889515
0.037567001 0.22626999 0.143831 0.7461043 0.10399755 0.65765715 0.025209237
0.031674005 0.22997999 0.148875 -0.43632671 -0.33852753 -0.83367741 0.025434997
0.036906004 0.21811 0.144399 0.73735356 -0.31851915 0.59569734 0.030531738
0.028699003 0.21322 0.14840999 0.16830848 -0.65331757 0.7381385 0.032480057
0.019485004 0.22740999 0.152034 0.38682958 -0.01568961 -0.92201769 0.017833892
0.021821 0.2191 0.151116 0.15518065 0.31381333 -0.93671775 0.021380307
0.014784001 0.22609001 0.149001 0.66413164 -0.060075819 -0.74519807 0.016970368
0.010462001 0.22621 0.14458901 0.75927979 -0.1181355 -0.63995177 0.015361789
0.017341003 0.21661 0.14797001 0.4467158 0.38261694 -0.80873305 0.015345791
0.010464005 0.21784 0.14456999 0.67966002 0.12636337 -0.72256106 0.032478429
0.043500002 0.25248 0.130132 -0.33762839 -0.71236515 -0.61525851 0.0429281
0.044483002 0.25312999 0.12691501 -0.83237761 -0.38691509 -0.39679241 0.023426346
0.063749999 0.27197999 0.10017688 -0.29537779 -0.14131801 -0.94487101 0.06837023
0.062250003 0.27197999 0.10022189 -0.29537809 -0.14131688 -0.94487107 0.068370357
0.063749999 0.26934999 0.10051958 -0.29537809 -0.14131688 -0.94487107 0.068370357
0.066824004 0.25711 0.1018682 -0.43437883 -0.10727591 -0.89431924 0.027991556
0.048087001 0.2545 0.11127301 -0.66571194 -0.53041917 -0.52486485 0.10940588
0.058293 0.26642001 0.1030522 -0.088684477 -0.32659593 -0.9409942 0.04067177
0.050532002 0.26414001 0.1041988 -0.19820534 -0.51164192 -0.83602464 0.018989481
0.058108002 0.25669 0.1054879 -0.46768439 -0.15497798 -0.8702029 0.021614425
0.048776001 0.25878 0.1080283 -0.36611214 -0.40681309 -0.83693784 0.031957328
0.037583001 0.25317001 0.13316101 -0.34849492 -0.73624218 -0.58008516 0.044005789
0.028329998 0.25319001 0.133701 0.037774783 -0.84826654 -0.52822059 0.019414406
0.037457004 0.25523999 0.127405 -0.34841642 -0.73644722 -0.57987207 0.043948863
0.027890004 0.25549999 0.127645 0.084375083 -0.85251749 -0.51584369 0.023248179
0.021337003 0.25268999 0.132268 0.36376482 -0.81080192 -0.4585579 0.0071089235
0.018431 0.25374001 0.126085 0.41848749 -0.81323707 -0.40436816 0.011017915
0.01275 0.25229999 0.122135 0.79803133 -0.46404663 -0.38445634 0.034933198
0.042750001 0.25567999 0.110325 -0.66573882 -0.53037977 -0.52487051 0.10940783
0.042112 0.25749999 0.1073225 -0.36614218 -0.40679416 -0.83693397 0.031956732
0.011500001 0.25222999 0.119215 0.8514818 -0.36151975 -0.37984514 0.047997151
0.043871 0.24616 0.13085 -0.71406651 -0.25552902 -0.65177757 0.026650187
0.045295 0.23555002 0.132127 -0.75563037 -0.25465611 -0.6034674 0.0062280181
0.045856003 0.24713999 0.126275 -0.83619982 -0.33200502 -0.43651178 0.027516434
0.053375002 0.23234001 0.121909 -0.77167147 -0.45983508 -0.43940294 0.015568241
0.048610002 0.23694 0.125787 -0.82502484 -0.29802176 -0.48012191 0.016481433
0.081721999 0.22238001 0.13077301 0.2189856 -0.77467448 -0.59323251 0.011681316
0.078344002 0.21643001 0.13520899 0.25612333 -0.60931838 -0.75042123 0.0029822814
0.068079002 0.21566001 0.132851 0.089117572 -0.69171697 -0.71664894 0.007182973
0.078652002 0.22420999 0.124562 0.21852617 -0.88355941 -0.41420898 0.0038163862
0.067589998 0.22349 0.123293 -0.0098979417 -0.83467448 -0.55065459 0.0082057444
0.075130999 0.22093999 0.128745 0.23928009 -0.82670623 -0.50921685 0.0083035426
0.068253003 0.22038999 0.12822901 0.033354413 -0.81189781 -0.58284593 0.0085460329
0.047088001 0.22685999 0.134968 -0.6821875 -0.30016235 -0.6667254 0.010716889
0.058328003 0.21564001 0.132998 -0.055118669 -0.64711553 -0.7603969 0.0040871259
0.047963001 0.2168 0.134582 -0.21478797 -0.3984302 -0.89169478 0.035277426
0.057505 0.22488001 0.124082 -0.28772661 -0.71870273 -0.63299263 0.036527757
0.052054003 0.22736001 0.12810799 -0.72714043 -0.35215625 -0.58928162 0.024528533
0.057579003 0.22035 0.12863301 -0.28699586 -0.60819656 -0.74008805 0.046943106
0.052339002 0.22024 0.12887099 -0.63170999 -0.40763944 -0.65937287 0.035298273
0.064035997 0.25130001 0.1005395 0.42597631 0.069760799 0.90204078 0.013660887
0.049402002 0.24740002 0.113881 -0.79792613 -0.50649345 -0.3267695 0.056300875
0.053625003 0.23293 0.118289 -0.64400738 -0.55972904 -0.52149576 0.027122065
0.050875001 0.23855999 0.116269 -0.82856554 -0.35174406 -0.4356091 0.011342637
0.057024002 0.24915001 0.1054003 -0.53052694 -0.1433237 -0.83546358 0.019582529
0.052035 0.24658999 0.1086783 -0.43282154 -0.42147359 -0.79688495 0.028641256
0.077073999 0.2263 0.118077 0.21852911 -0.8835566 -0.41421345 0.0038136169
0.068416998 0.22589999 0.11780401 -0.084133193 -0.80922121 -0.58144879 0.018533347
0.058267001 0.22795999 0.11665 -0.36518443 -0.63293225 -0.68266904 0.027313044
0.038518 0.24698001 0.136168 -0.50408536 -0.44549564 -0.73988628 0.039870977
0.028271005 0.25026 0.138328 -0.015496265 -0.7730304 -0.63417977 0.01780135
0.039474003 0.23680001 0.13599899 -0.71306747 -0.24283816 -0.65769631 0.0063271122
0.017381005 0.24823001 0.13595501 0.47669819 -0.71192718 -0.51567286 0.013532816
0.012176 0.24449 0.133779 0.78517169 -0.52193189 -0.33330569 0.024797359
0.011 0.23828 0.13777401 0.84258002 -0.39418849 -0.36697993 0.014366952
0.014338002 0.25095001 0.128208 0.5251044 -0.78348589 -0.33228782 0.025516272
0.010398999 0.24724999 0.12586901 0.89614761 -0.32351896 -0.30373508 0.034004856
0.0093189999 0.23748001 0.12369 0.95984846 -0.22861007 -0.16256762 0.007631606
0.041278001 0.22924 0.138992 -0.70580089 -0.12846732 -0.69666433 0.016850151
0.039925002 0.21512 0.137685 -0.49193445 -0.058857333 -0.86864048 0.040929805
0.0081880018 0.22767001 0.138703 0.93956327 -0.17970741 -0.2914207 0.014043191
0.008272998 0.21657 0.13961899 0.86413795 0.33086988 -0.37919742 0.048940618
0.0068360046 0.22721002 0.125211 0.98552257 -0.12056172 -0.11920663 0.0043064994
0.006062001 0.22067 0.124399 0.98427206 0.16453789 0.064309932 0.029838379
0.0084170029 0.24522001 0.11986 0.89614254 -0.32352197 -0.30374691 0.034012903
0.0090709999 0.23666999 0.119817 0.95805603 -0.20726846 -0.1979098 0.0057622446
0.0069060028 0.21635 0.118959 0.98243999 0.18117557 0.044576686 0.032072492
0.124948 0.20286 0.14141801 -0.50217587 -0.45149371 -0.73754513 0.0049769632
0.1336 0.192627 0.14046299 -0.66844445 -0.23813689 -0.70460826 0.0084011387
0.12742001 0.19638601 0.14331201 -0.52449149 -0.31101868 -0.79257548 0.0042440598
0.13392 0.186911 0.14103401 -0.68985844 -0.097785927 -0.71730965 0.0065412661
0.12815601 0.186837 0.14508399 -0.5732041 -0.084137343 -0.81508148 0.0041391035
0.13381 0.17860401 0.140854 -0.6749531 0.049827036 -0.73617643 0.0027250601
0.128125 0.17687401 0.145059 -0.61608005 0.092481732 -0.78223556 0.0023465508
0.1145 0.193279 0.15088001 -0.37729472 -0.35353231 -0.85595769 0.0052667796
0.1074817 0.19473 0.15231501 -0.18586323 -0.50761348 -0.8412987 0.012646539
0.117407 0.20535001 0.143139 -0.24998525 -0.50104308 -0.82853079 0.0050569442
0.1079536 0.20633 0.142968 -0.12115002 -0.45767561 -0.88082665 0.005781922
0.118511 0.19719401 0.14725301 -0.37112617 -0.34566584 -0.8618471 0.0054108021
0.1086436 0.199323 0.14807901 -0.11644173 -0.59730524 -0.7935161 0.0055130087
0.097980298 0.19569799 0.153906 -0.024833232 -0.57589561 -0.81714606 0.012671551
0.088554002 0.195169 0.153862 0.13523138 -0.59376568 -0.7931928 0.014543219
0.098125003 0.20691 0.143455 0.026278881 -0.39993814 -0.91616535 0.002705948
0.088125005 0.20688 0.14301901 0.1192934 -0.39521939 -0.91080779 0.0015582
0.098237805 0.20071 0.146648 -0.0069597415 -0.58737713 -0.80928338 0.015852297
0.087502003 0.20008001 0.145916 0.11381002 -0.60800987 -0.78572983 0.015490185
0.116381 0.18589401 0.15164199 -0.40546137 -0.17009516 -0.89814734 0.0030322804
0.1081167 0.18691 0.155228 -0.29560381 -0.25577238 -0.92043406 0.0076185586
0.117644 0.176955 0.152372 -0.44164523 0.016793245 -0.89703256 0.0038809509
0.108125 0.176853 0.155536 -0.28453448 0.014439251 -0.95855707 0.0030511376
0.120575 0.188169 0.14900601 -0.48251823 -0.14953297 -0.86302727 0.0021532676
0.122445 0.175721 0.149563 -0.54274106 0.042393196 -0.83882946 0.0043320926
0.0982069 0.186849 0.15684301 -0.085129447 -0.29672778 -0.95116013 0.021261316
0.088057004 0.18677101 0.15700901 0.19515742 -0.19225521 -0.96174401 0.012458436
0.0980433 0.176863 0.157803 -0.055512048 -0.015349915 -0.99833995 0.007448623
0.088125005 0.176964 0.157022 0.2755622 0.10759915 -0.95524234 0.020187844
0.13325 0.167541 0.14003301 -0.64387792 0.13396259 -0.75330955 0.0024370786
0.128149 0.166829 0.14295301 -0.59509897 0.15709978 -0.78814769 0.001263492
0.126761 0.157829 0.142588 -0.56684518 0.27811375 -0.77546078 0.0032190143
0.123571 0.14746 0.14042801 -0.60811114 0.31426507 -0.72899812 0.0063965297
0.115832 0.167418 0.151639 -0.46439239 0.15635081 -0.87171906 0.0033340643
0.1080431 0.16690201 0.15500601 -0.29502016 0.15021715 -0.943609 0.0037481887
0.113984 0.158886 0.150416 -0.44073677 0.28497621 -0.85119891 0.0053655636
0.1080973 0.15688801 0.15295 -0.29052511 0.28976738 -0.91193748 0.0064742533
0.120566 0.165958 0.14830001 -0.51491582 0.17084281 -0.84004426 0.0017491818
0.11859401 0.15653899 0.147879 -0.51175618 0.28225034 -0.81144345 0.0029353874
0.112875 0.152652 0.149689 -0.38840196 0.3981083 -0.83105576 0.0085874954
0.098214805 0.166712 0.15650301 -0.020316985 0.17890212 -0.98365712 0.004140513
0.088215001 0.166885 0.15501501 0.32926905 0.21563224 -0.91928482 0.01968986
0.098125003 0.156597 0.15441 -0.0052823606 0.27603641 -0.96113271 0.0068042353
0.088160001 0.15705401 0.152714 0.32840732 0.26231068 -0.90738177 0.016386257
0.084311999 0.15246901 0.149615 0.24083789 0.01177044 -0.97049403 0.059673704
0.1066154 0.14993 0.15125901 -0.19795869 0.38478413 -0.90152842 0.0084427586
0.118088 0.14665499 0.14332101 -0.48477679 0.32723331 -0.8111164 0.012247019
0.108841 0.145437 0.146623 -0.21786378 0.42153558 -0.88025171 0.010199225
0.117688 0.13971901 0.143084 -0.50713331 0.31902084 -0.80065072 0.014214325
0.108125 0.139516 0.145374 -0.24138522 0.43614018 -0.86689961 0.0099169947
0.098388903 0.14984401 0.15172 -0.038185336 0.39012834 -0.91996837 0.010735004
0.087549999 0.14677301 0.150903 0.0094410116 0.079695806 -0.99677449 0.047492072
0.086149 0.139778 0.15103599 -0.20715107 -0.25438344 -0.94465739 0.025480686
0.097970605 0.14487401 0.147587 -0.14519539 0.31627905 -0.93748909 0.018671323
0.088347003 0.14686 0.148661 0.0094404668 0.079705797 -0.99677372 0.047494438
0.098138899 0.139606 0.147339 -0.14519632 0.31627876 -0.93748909 0.018673668
0.090845503 0.13958 0.149415 -0.18494596 0.016573779 -0.98260897 0.025298525
0.14366099 0.19402801 0.12252 -0.92041755 -0.28093216 -0.27186149 0.0066030738
0.134642 0.20473 0.13183101 -0.69015884 -0.40015957 -0.60295367 0.0044354568
0.128343 0.20719999 0.13633901 -0.52822232 -0.47807541 -0.70173007 0.0067754826
0.13633901 0.19655201 0.13484301 -0.7790432 -0.26857656 -0.56653172 0.0041775848
0.131733 0.19937199 0.138505 -0.65142018 -0.3041302 -0.69509459 0.0061181071
0.136998 0.20668 0.126781 -0.8241421 -0.39830247 -0.40267223 0.0091458764
0.132875 0.21108 0.12959 -0.74014568 -0.52058494 -0.42564726 0.011109083
0.140938 0.19713199 0.126663 -0.88692129 -0.31068045 -0.34183076 0.0038380553
0.144153 0.18646601 0.124241 -0.95414311 -0.11537059 -0.27622551 0.0076777046
0.15375 0.172221 0.120429 -0.51798862 -0.50113165 -0.69322062 0.06503357
0.14516 0.17657399 0.123594 -0.69614828 -0.084045157 -0.71296144 0.044977665
0.138036 0.186663 0.13545901 -0.81002659 -0.061518699 -0.58315742 0.0046865996
0.137861 0.176625 0.135658 -0.77414429 0.054391067 -0.63066804 0.0025961238
0.142216 0.18723699 0.128254 -0.89833516 -0.10155091 -0.42741233 0.0056578321
0.142355 0.17674699 0.12858 -0.8671717 -0.077556886 -0.49193311 0.013927608
0.143875 0.196228 0.11526901 -0.95895141 -0.22659501 -0.1704898 0.0043888544
0.144375 0.196797 0.1086445 -0.94115782 -0.30727333 -0.14073028 0.0059855459
0.13954499 0.2061 0.117655 -0.88866729 -0.41421592 -0.19671176 0.0021756196
0.142313 0.20008999 0.117237 -0.92437547 -0.33019742 -0.19104898 0.0041756001
0.14540601 0.187417 0.115604 -0.96485788 -0.19427004 -0.17694214 0.0036036982
0.155118 0.17263901 0.117944 -0.56342161 -0.42417717 -0.70896399 0.053529784
0.14872199 0.17376 0.117434 -0.5870927 -0.5095039 -0.62906915 0.043783061
0.145917 0.186298 0.1094211 -0.97563714 -0.16882955 -0.14010231 0.0032495963
0.119433 0.2096 0.139063 -0.25648993 -0.49896565 -0.82779592 0.0047740079
0.11097001 0.21057999 0.13964801 -0.14828649 -0.48850796 -0.85986692 0.004848307
0.146657 0.15715301 0.131337 -0.35205206 -0.072589144 -0.93316144 0.031428069
0.15607899 0.166335 0.124122 -0.52020526 -0.44320381 -0.730039 0.049573082
0.148168 0.16701001 0.126298 -0.2865766 -0.49326757 -0.82131654 0.032226685
0.156055 0.157253 0.124902 -0.70871705 0.068796292 -0.7021305 0.029180726
0.151163 0.156662 0.12913701 -0.57538748 0.071726911 -0.81472969 0.043009475
0.136914 0.167032 0.136122 -0.7568534 0.066869825 -0.65015489 0.0050594709
0.133 0.16472 0.13990301 -0.668118 0.14268312 -0.73024642 0.0029397116
0.138004 0.156507 0.133119 -0.49821573 0.01963944 -0.86683065 0.042904783
0.130629 0.154915 0.138484 -0.526851 0.27108574 -0.80556852 0.0028973371
0.141875 0.166383 0.12835699 -0.78373605 -0.10993145 -0.61128795 0.036790907
0.141434 0.16088 0.129632 -0.53708231 -0.022425119 -0.84323174 0.045972284
0.144921 0.149904 0.13124301 -0.3528904 0.34862784 -0.86828965 0.037123516
0.154635 0.150167 0.122044 -0.70719039 0.31820387 -0.63136995 0.016325338
0.14827999 0.14737001 0.125845 -0.52652866 0.51785374 -0.67423666 0.0098816361
0.13797301 0.14834701 0.131456 -0.36187053 0.47896025 -0.7997793 0.015337758
0.12805301 0.14706101 0.13599101 -0.57399821 0.45164311 -0.68304068 0.016997997
0.125595 0.14034601 0.13415 -0.68097848 0.28570601 -0.67427027 0.0093491748
0.138455 0.143509 0.128278 -0.37806544 0.51105171 -0.77194083 0.022927471
0.13203099 0.143278 0.129253 -0.53197962 0.50747716 -0.67783815 0.019725965
0.136581 0.14033499 0.125144 -0.39942452 0.69131386 -0.60211724 0.007815362
0.13019 0.139321 0.126847 -0.53198594 0.50746638 -0.67784125 0.019722477
0.15933301 0.167891 0.117361 -0.56344873 -0.42420113 -0.70892805 0.053521059
0.14650001 0.171452 0.11971 -0.51798266 -0.50117189 -0.693196 0.065022051
0.15956201 0.157747 0.11834 -0.88730741 0.07214395 -0.45550054 0.044594601
0.155636 0.14919901 0.11917301 -0.70719075 0.31820732 -0.6313678 0.016323969
0.1505 0.145064 0.119181 -0.58164734 0.58193195 -0.56836736 0.014211843
0.123 0.14780301 0.13977601 -0.60811114 0.31426507 -0.72899812 0.0063965297
0.122389 0.13886 0.138795 -0.59490627 0.43003449 -0.67908525 0.018004857
0.080455005 0.1939 0.15220501 0.34927082 -0.48287472 -0.80302054 0.018088751
0.078538001 0.20618001 0.142059 0.18082748 -0.437738 -0.88073081 0.0027749946
0.068973005 0.20395 0.14122801 0.11291887 -0.47436607 -0.87305558 0.0067759664
0.077479005 0.197723 0.14519399 0.2705847 -0.41650814 -0.86793143 0.023760239
0.068141997 0.197026 0.143878 0.17280744 -0.2860494 -0.94250375 0.014363435
0.056738 0.20412001 0.140891 0.00073640002 -0.45958629 -0.88813281 0.0045937961
0.047846001 0.20403999 0.140972 -0.03633894 -0.34159034 -0.93914616 0.00271941
0.058125 0.196944 0.142424 -0.0044234376 -0.22387859 -0.97460699 0.0070257671
0.048081003 0.19696701 0.143563 -0.04023103 -0.22149211 -0.97433192 0.0042004804
0.078511 0.186672 0.15476701 0.50618094 -0.16235481 -0.84700757 0.034249049
0.072999999 0.18308699 0.15028399 0.68004489 -0.089362115 -0.72770423 0.030443884
0.078930005 0.177249 0.154365 0.53606218 0.17085041 -0.82670885 0.018211767
0.073989004 0.189634 0.148981 0.68004316 -0.089353099 -0.72770685 0.030443544
0.068107001 0.18703499 0.144169 0.2828007 -0.035433222 -0.95852399 0.027427558
0.074375004 0.17489201 0.147102 0.69481319 0.2732133 -0.66527379 0.01750415
0.06803 0.1769 0.142177 0.29757643 0.22898653 -0.92682981 0.031569399
0.058176 0.18695399 0.143295 0.106451 0.0045626885 -0.99430746 0.028152194
0.048175 0.18684399 0.144933 -0.038542189 0.067814387 -0.99695325 0.006826716
0.058082003 0.17672801 0.142564 -0.0079677086 0.18697172 -0.98233294 0.0034264468
0.048151001 0.17687699 0.142992 0.038096964 0.28818578 -0.95681643 0.0087176375
0.038661003 0.20392999 0.141164 -0.029402535 -0.25662446 -0.9660638 0.036180034
0.027327999 0.20976001 0.14429399 0.084962435 -0.63697439 0.76618856 0.040219717
0.038216002 0.196825 0.143327 0.16092302 -0.22269997 -0.96151358 0.0058681369
0.029941998 0.19620299 0.141397 0.4036282 -0.0080862371 -0.91488731 0.038544029
0.019561 0.21090999 0.144343 -0.31796536 -0.75363255 0.57527047 0.0096438928
0.038073003 0.18672401 0.14452 0.17248975 0.045638345 -0.98395348 0.0073326589
0.029656 0.187352 0.141908 0.42582259 0.091916025 -0.90012586 0.01168427
0.038590003 0.17748901 0.142178 0.19923167 0.37411079 -0.90573061 0.0082584694
0.031420998 0.18014401 0.14102399 0.41895124 0.42133331 -0.80433702 0.0084476769
0.080954999 0.167732 0.15238801 0.65199536 0.23585072 -0.72060847 0.018073827
0.082258001 0.15890899 0.150809 0.55176026 0.18901981 -0.8123005 0.01541355
0.076452002 0.166382 0.145226 0.69483125 0.28809536 -0.65894651 0.018995659
0.066009998 0.167795 0.140929 0.05322047 0.19476742 -0.97940451 0.032201033
0.078309998 0.15654901 0.145164 0.69635779 0.11462907 -0.70848149 0.021707475
0.063888997 0.160706 0.140407 -0.061588861 0.12001347 -0.99085999 0.010013676
0.058769003 0.166951 0.14139199 0.10316385 0.13051817 -0.98606396 0.020321144
0.051412001 0.170956 0.140357 0.18421111 0.32899684 -0.92618972 0.015567646
0.059700001 0.159465 0.14044601 0.16084772 0.15765952 -0.97430557 0.030772509
0.078079998 0.14496499 0.15225801 0.1091383 -0.44714984 -0.88777572 0.033779215
0.070813 0.143585 0.151088 0.29156253 -0.59619606 -0.74802518 0.039049324
0.078080997 0.139826 0.153521 -0.075991563 -0.25113225 -0.96496522 0.025803825
0.069669001 0.13974901 0.152133 0.30103204 -0.48792616 -0.81933367 0.032826744
0.078002006 0.149847 0.146725 0.29242998 -0.44415969 -0.84688061 0.077966951
0.068089001 0.14684799 0.14518701 0.36673963 -0.60464549 -0.70704025 0.0094668921
0.064723998 0.139753 0.14752901 0.39517462 -0.55422795 -0.73257649 0.01399758
0.057984002 0.144823 0.14159399 0.10855728 -0.51931661 -0.84765881 0.029278623
0.04806 0.14470699 0.143498 0.082651727 -0.48762557 -0.86913168 0.025466334
0.058072001 0.139327 0.143582 0.15547548 -0.66415334 -0.73125088 0.02137457
0.048143003 0.13925201 0.146212 0.14657496 -0.59871596 -0.78743577 0.031854171
0.040547002 0.14424001 0.14286201 0.35994217 -0.78289491 -0.50746149 0.050245311
0.039235003 0.13908701 0.144363 0.27816954 -0.61602265 -0.73697889 0.070127271
0.075727001 0.21038 0.139129 0.21418424 -0.47806239 -0.85181069 0.0033514106
0.067621 0.20877999 0.137952 0.10414454 -0.5102818 -0.85367811 0.00511677
0.058848001 0.20853001 0.137969 -0.038321562 -0.47359723 -0.87990749 0.0054788273
0.048302002 0.20906 0.13825801 -0.077510841 -0.42872471 -0.90010399 0.0054551302
0.037909001 0.20877001 0.138274 -0.19225384 -0.14292401 -0.97088164 0.072213292
0.028345004 0.20596001 0.13751601 -0.12120762 -0.54344511 0.83064801 0.11271713
0.025366001 0.19774601 0.138347 0.57305831 -0.0035732505 -0.81950676 0.033460639
0.020879999 0.20508 0.13230801 0.7911132 0.17815721 -0.58514953 0.055837024
0.019797005 0.196758 0.13359201 0.70376015 -0.11795598 -0.7005769 0.0059455447
0.016220003 0.20568 0.125985 0.84119576 0.021250656 -0.54031295 0.033550162
0.012708001 0.20313999 0.120825 0.87406546 -0.16717812 -0.45613703 0.0070871506
0.014789999 0.197079 0.12781 0.84734458 -0.091733746 -0.52306026 0.0057304609
0.011918001 0.196456 0.12298501 0.90336299 -0.11470471 -0.41325316 0.0070019392
0.024840005 0.18604 0.138816 0.56156623 0.1044868 -0.82080805 0.0091117797
0.035423003 0.173455 0.13897 0.26235282 0.46205065 -0.8471601 0.0077266204
0.027721003 0.17641601 0.13641301 0.53422672 0.41966563 -0.73381364 0.0055706957
0.023625001 0.172563 0.12873 0.67109746 0.6318242 -0.38784823 0.0044638016
0.019969001 0.187076 0.13429001 0.73211843 0.15737711 -0.6627481 0.010024117
0.021081001 0.179371 0.132477 0.69276303 0.45652202 -0.55827153 0.0087372195
0.015166 0.18668601 0.126974 0.83963245 0.18885627 -0.50926477 0.0076140678
0.012109004 0.18923301 0.122611 0.8909108 0.13929515 -0.43229026 0.012848299
0.018952005 0.177169 0.125829 0.78641486 0.46373811 -0.40804234 0.0062469114
0.013607003 0.20784 0.118635 0.82173651 0.22532307 -0.52342957 0.049227774
0.012327999 0.20491999 0.117264 0.86681664 0.0054754531 -0.498597 0.033453744
0.010667004 0.19848301 0.11761 0.90338933 -0.11469468 -0.41319811 0.0069744457
0.013625003 0.18306699 0.118607 0.89179856 0.414648 -0.18100342 0.0088002766
0.010821 0.18918601 0.118947 0.97110236 0.13235515 -0.19860105 0.021748984
0.017121002 0.176109 0.117794 0.84889227 0.48539269 -0.20922697 0.0035174063
0.017499998 0.174674 0.1071175 0.82750958 0.52928513 -0.18731017 0.0049080662
0.073563002 0.164141 0.139321 0.43814281 0.22409004 -0.87052548 0.040726949
0.069965005 0.16613001 0.138942 0.042627886 0.20684171 -0.97744536 0.036731411
0.073869005 0.15653101 0.138882 0.46868646 -0.18745917 -0.86324513 0.057940684
0.068336003 0.15665701 0.137742 -0.011200796 -0.10971908 -0.99389958 0.049078658
0.054284003 0.16454101 0.139166 0.27066356 0.20376664 -0.94086152 0.014609119
0.048041001 0.166869 0.136733 0.45068917 0.51399606 -0.72985429 0.025667811
0.057443 0.155545 0.139026 0.1486076 -0.041601405 -0.98802084 0.041527726
0.050594002 0.156892 0.134344 0.6727168 0.11576855 -0.73078698 0.042428575
0.044500001 0.16239101 0.129498 0.59951371 0.53357315 -0.59655923 0.043033648
0.046250001 0.158574 0.126313 0.83461094 0.44335803 -0.32689163 0.075001374
0.06594 0.15013701 0.138577 0.062156912 -0.34150508 -0.9378224 0.049006518
0.058259003 0.14959 0.13929 0.18698144 -0.34636065 -0.9192782 0.045123689
0.049025003 0.149435 0.13696501 0.24271692 -0.67756188 -0.69426107 0.051133763
0.047000002 0.15106501 0.129209 0.3495166 -0.61714137 -0.70496428 0.042339273
0.045855001 0.154568 0.112257 0.73811674 -0.5837099 0.33832872 0.10117272
0.044152003 0.15417001 0.1083272 0.55382234 -0.62194115 0.55359733 0.074788764
0.045156002 0.149295 0.111462 0.71343958 -0.5019455 0.48893222 0.076894961
0.043850001 0.150619 0.1092929 0.58453882 -0.60774499 0.53755039 0.087734967
0.038549002 0.168257 0.13537601 -0.29371658 -0.70654899 0.64383167 0.0069489204
0.030275002 0.169958 0.132788 0.51250762 0.6654157 -0.54273182 0.0082743121
0.037177004 0.163322 0.126886 -0.36954576 -0.80908924 0.45695794 0.0015373469
0.028963 0.166787 0.125228 -0.53203923 -0.76704764 0.35856968 0.0046437387
0.039143 0.160568 0.122643 -0.36452094 -0.86008775 0.3568942 0.0045510111
0.033 0.161558 0.120109 -0.45134526 -0.75177139 0.48075694 0.0056222733
0.021800004 0.171279 0.121032 0.72853959 0.59948909 -0.33142552 0.0062416438
0.037884001 0.145145 0.137802 0.53365648 -0.68499517 -0.49597609 0.040642425
0.034527004 0.139513 0.13796401 0.53365141 -0.68499339 -0.49598423 0.04063797
0.032750003 0.13742 0.133413 0.58283192 -0.78510177 -0.20957632 0.040994368
0.027298003 0.16500801 0.118701 -0.52006978 -0.77749521 0.35359377 0.0054407413
0.038550001 0.15916499 0.118731 -0.34448564 -0.88180333 0.32210648 0.0041377745
0.032499999 0.161479 0.119221 -0.49395499 -0.764835 0.41356477 0.0061281542
0.042589001 0.15411401 0.1038257 0.58451724 -0.60774255 0.53757656 0.087737001
0.020778 0.170654 0.117735 0.73846012 0.65186685 -0.17247072 0.0068075666
0.037527002 0.14467999 0.11111 0.46874011 -0.60717469 -0.64157742 0.005866745
0.032750003 0.142258 0.110414 0.46878213 -0.60720211 -0.64152074 0.0058589075
0.033611 0.140515 0.11316 0.46878806 -0.60721052 -0.64150858 0.0058575436
0.031640999 0.138502 0.111958 0.46882352 -0.60723507 -0.64145941 0.0058502122
0.038619 0.14748 0.107607 0.5694347 -0.66778845 -0.47937754 0.016703486
0.031441003 0.143549 0.1081576 0.47598499 -0.67020458 -0.56944197 0.0028901543
0.029071003 0.13982999 0.1085888 0.47598499 -0.67020458 -0.56944197 0.0028901543
0.083374999 0.28375 0.080265 -0.69538468 -0.23898028 -0.67773783 0.0056980988
0.084802002 0.27471 0.081132002 -0.5923745 -0.24637972 -0.76706547 0.01349183
0.084056005 0.26264 0.090896301 -0.43222958 -0.51712793 -0.73875326 0.00369721
0.084022999 0.26069999 0.091192804 -0.39357325 -0.48935169 -0.77822554 0.0063953851
0.086749002 0.26708001 0.084736004 -0.52248943 -0.46689072 -0.71345484 0.006487147
0.085708 0.26098001 0.088748001 -0.45074272 -0.5343765 -0.71503335 0.0045233937
0.086014003 0.28400001 0.076260999 -0.69996727 -0.29157621 -0.65194255 0.0068006245
0.088367 0.27699 0.076650999 -0.64671504 -0.3023999 -0.70022422 0.011895906
0.090897098 0.26988 0.078543 -0.59230733 -0.37863559 -0.71120119 0.0092242574
0.074438006 0.28273001 0.090375304 0.67986989 0.016672963 0.73314315 0.0095390202
0.072750002 0.28253999 0.090561599 0.67986888 0.016679294 0.73314404 0.0095392438
0.074264005 0.27948001 0.091034703 0.67986959 0.016676841 0.73314333 0.0095393462
0.068783998 0.27588999 0.094884604 0.63255119 -0.029571004 0.7739538 0.017594624
0.079601005 0.2845 0.085057005 0.70246118 0.038495716 0.71068025 0.0076522529
0.078661002 0.27645001 0.085434005 0.66117793 0.027738377 0.7497161 0.0099074291
0.072875001 0.27234 0.089844003 0.60842365 0.096019991 0.78778219 0.021824442
0.06061 0.27329999 0.097642504 -0.29537752 -0.14131819 -0.94487101 0.06837032
0.077124 0.26405999 0.092189699 -0.38129494 -0.48171195 -0.78902966 0.006038486
0.068403006 0.26651001 0.095070802 -0.62478781 -0.1951244 -0.75602031 0.019099949
0.077399999 0.25911999 0.096201003 -0.37730029 -0.50651139 -0.77530044 0.0046436773
0.069628 0.25767002 0.098732799 -0.46141326 -0.12661076 -0.87810451 0.027269369
0.078841999 0.26848999 0.087617002 -0.43273494 -0.47357085 -0.76711875 0.0067598876
0.072999999 0.2712 0.089780003 0.60842371 0.096020497 0.78778213 0.021823406
0.058281001 0.26813 0.099250421 -0.30108872 -0.091772109 -0.94916987 0.064206578
0.051750001 0.26748002 0.099848092 -0.16683987 -0.35772914 -0.91880053 0.042867519
0.062749997 0.26146999 0.099927373 -0.50185984 -0.16620237 -0.84883064 0.034010869
0.033571005 0.25782999 0.091432706 0.2064072 -0.93305117 -0.29463804 0.015543612
0.028715998 0.25839001 0.094002001 0.2064072 -0.93305117 -0.29463804 0.015543612
0.034021005 0.26288 0.082208 0.19103831 -0.86545706 -0.46312907 0.031841654
0.028377004 0.26383999 0.084240004 0.19091524 -0.86551589 -0.46306965 0.031785745
0.033932 0.26051 0.086433001 0.18612653 -0.91787857 -0.350508 0.025151037
0.026693001 0.26049 0.088168003 0.23880717 -0.85915995 -0.45256522 0.034051653
0.023000002 0.26203999 0.080759004 0.22228232 -0.8792305 -0.42136011 0.03356503
0.022821002 0.25850999 0.085050002 0.18266542 -0.91310471 -0.36451766 0.025214965
0.026308998 0.27285999 0.062056001 -0.025542269 -0.91648245 -0.39925876 0.019174108
0.02245 0.27221 0.060825001 -0.025476603 -0.91650516 -0.39921072 0.019112799
0.034079 0.26585999 0.074978001 0.15715888 -0.88196146 -0.44434786 0.02887252
0.027905002 0.26784 0.075275004 0.1767879 -0.88837665 -0.42371312 0.027746443
0.034000002 0.26808 0.069084004 0.054610178 -0.91556865 -0.39843675 0.014395946
0.026551999 0.27050999 0.067955002 0.098481193 -0.88386661 -0.45725399 0.010965914
0.022229999 0.26434001 0.074062005 0.21544355 -0.87500358 -0.43353528 0.026826311
0.022107005 0.26039001 0.078701004 0.2222922 -0.87915635 -0.42150956 0.033694346
0.021788999 0.26899999 0.065434001 0.18613139 -0.85368556 -0.4863908 0.012735247
0.065333001 0.25130999 0.099289708 -0.39771387 -0.18987525 -0.89764744 0.019185906
0.033882998 0.27353001 0.052547 -0.15292998 -0.88486844 -0.44002312 0.012427152
0.028014004 0.27612001 0.054616001 -0.1860113 -0.85304689 -0.48755604 0.015654244
0.030749999 0.28200001 0.044974003 -0.18646584 -0.85284752 -0.48773098 0.015722066
0.035007998 0.27801999 0.045355003 -0.18632874 -0.85291398 -0.48766747 0.015678046
0.030065 0.27983001 0.048012003 -0.18646584 -0.85284752 -0.48773098 0.015722066
0.022069998 0.27516001 0.055600002 -0.18629308 -0.85293317 -0.48764735 0.01566753
